ply
format ascii 1.0
comment Generated synthetic body scan — Fashion Tech Week 2
comment Source: parametric body model (chest/waist/hip elliptical cylinders)
comment NOTE: Synthetic data — real iPhone LiDAR pending device provisioning
element vertex 1703
property float x
property float y
property float z
end_header
0.041593 0.779984 -0.073134
0.083237 0.543756 0.031078
0.079177 0.468144 0.032287
-0.069173 0.351587 0.058506
-0.083918 0.725608 0.037285
-0.058515 0.663703 0.064277
-0.055891 0.323379 -0.063794
0.090220 0.571762 -0.006092
-0.090988 0.301689 0.012142
-0.062492 0.327049 -0.057027
-0.018573 0.297588 -0.079427
0.027221 0.297939 -0.077162
0.060870 0.415692 0.060989
0.091783 0.245352 0.002616
0.089914 0.217147 -0.017304
0.082303 0.279359 0.029581
-0.019648 0.496428 0.080791
0.058982 0.287660 0.063372
0.025218 0.347751 -0.077156
0.047957 0.767493 0.069967
-0.065051 0.561852 0.055691
0.028436 0.540066 -0.073801
0.001231 0.510510 0.080923
-0.074059 0.721704 0.042136
-0.090410 0.801831 0.013582
-0.080787 0.710732 0.032605
0.032164 0.201272 -0.076377
-0.085867 0.366724 0.009427
-0.087408 0.301713 -0.011446
-0.013029 0.743603 0.082255
0.080061 0.231340 0.042846
0.089194 0.317153 -0.010763
0.086762 0.582896 0.008883
-0.057318 0.251488 -0.063404
0.077776 0.762323 0.043981
0.006732 0.337593 -0.086246
-0.001339 0.447916 -0.082847
0.082094 0.279996 -0.024340
0.031588 0.472517 -0.076421
0.089589 0.240644 0.016916
0.082794 0.511814 -0.028126
0.013653 0.278507 0.081614
-0.008638 0.274153 0.085985
0.017397 0.438857 0.074622
-0.084622 0.591683 -0.006989
-0.071933 0.607659 -0.048412
0.035649 0.243413 -0.077129
-0.007267 0.403807 -0.079224
-0.063090 0.649675 -0.062915
0.087279 0.256853 0.002069
0.020724 0.243988 0.082416
0.027680 0.617450 -0.077259
-0.065852 0.221424 -0.059351
0.084955 0.427490 0.021824
-0.036589 0.663046 -0.071495
-0.089787 0.595997 -0.014521
-0.085877 0.640244 0.013384
0.045280 0.734385 -0.071949
0.075842 0.451710 -0.039361
-0.070052 0.544055 0.047500
0.011244 0.735699 -0.079076
0.043293 0.594527 -0.068479
0.016870 0.743698 0.084062
0.085292 0.215469 0.031528
0.086119 0.475145 -0.022702
-0.021627 0.760969 0.083481
0.079170 0.705705 -0.036686
-0.090076 0.350204 -0.013102
-0.084690 0.561910 -0.022549
0.026129 0.318211 0.079170
-0.083451 0.672940 0.030860
0.033423 0.780385 0.078073
0.092273 0.796375 0.000011
0.061220 0.443346 -0.059031
-0.046817 0.788600 0.068280
0.077025 0.379859 -0.043486
-0.068404 0.409240 -0.050594
-0.062766 0.590357 0.057108
-0.076168 0.366714 0.045892
0.083946 0.474217 -0.010246
-0.049817 0.467109 0.062658
-0.074714 0.770648 0.046352
0.059075 0.630112 0.058082
-0.053779 0.444487 -0.061849
0.034628 0.763733 -0.079230
-0.013856 0.250842 0.082533
-0.087038 0.737635 -0.021133
0.061703 0.590920 0.057653
0.055918 0.761672 0.069604
0.085995 0.467231 -0.014799
0.058586 0.324651 -0.060061
0.000637 0.557284 0.081076
0.007229 0.320341 -0.083475
0.075360 0.798341 0.046031
0.082243 0.463570 0.024540
-0.055292 0.543064 -0.060782
-0.084365 0.305043 0.024645
0.018031 0.291940 0.078497
-0.053923 0.649288 0.063809
0.085562 0.492117 0.014096
-0.087620 0.543097 -0.000941
-0.065606 0.757754 -0.059976
-0.082881 0.442068 0.021429
0.045966 0.650364 -0.064442
0.084648 0.522049 -0.020427
-0.086295 0.692892 0.023482
0.073204 0.559576 0.043272
-0.070240 0.457422 0.048536
-0.087267 0.589171 0.009986
0.062764 0.464031 0.053456
-0.061680 0.665940 0.057499
-0.079108 0.502499 -0.040293
-0.047956 0.375508 -0.067061
0.077427 0.740374 -0.039224
-0.089519 0.253369 0.027980
-0.027045 0.721855 -0.077175
0.054515 0.743248 0.071043
-0.028170 0.494059 0.073687
-0.043564 0.272187 -0.072153
-0.058245 0.381102 -0.056964
0.054926 0.468879 -0.061099
-0.032200 0.789702 0.078330
-0.065961 0.428528 0.046288
-0.077191 0.269112 -0.039952
0.070593 0.539118 0.046530
-0.070959 0.272999 0.054871
-0.066306 0.512856 0.055762
0.082814 0.617943 -0.015843
0.049211 0.224117 0.074187
-0.022232 0.645495 -0.082400
0.062766 0.758497 0.054670
-0.065094 0.541264 0.052423
-0.081409 0.418954 0.038990
0.043870 0.644057 -0.069269
-0.073255 0.678175 0.049804
-0.088326 0.211565 -0.013924
-0.069355 0.490036 0.052266
-0.056082 0.525123 0.065498
-0.042355 0.623704 0.072199
0.057380 0.537317 0.059239
-0.075509 0.422533 0.045368
-0.068863 0.392491 -0.054384
-0.078541 0.258985 0.042328
0.047579 0.245335 -0.070082
0.081857 0.385564 0.028929
0.045202 0.223303 0.074504
0.077814 0.624404 -0.029794
0.042345 0.290578 -0.073881
-0.047975 0.658263 -0.066275
0.024086 0.609309 -0.078666
0.068604 0.706094 -0.049414
0.044381 0.520752 0.069058
0.003018 0.778775 0.086000
0.086610 0.731195 -0.032465
-0.001281 0.499013 0.080586
-0.077985 0.452196 0.041745
0.081550 0.722394 -0.027460
0.020190 0.377147 0.078248
0.046203 0.670577 -0.069557
0.073683 0.774729 0.051174
-0.015794 0.759665 0.084489
-0.076447 0.496098 -0.044495
-0.000368 0.649931 -0.082625
0.039314 0.231368 0.073482
-0.075888 0.369100 -0.047843
-0.068227 0.232734 0.047791
-0.073043 0.219338 -0.045438
0.089540 0.774221 -0.006910
-0.072449 0.310449 0.049310
-0.084937 0.617330 -0.005210
0.053305 0.486765 0.064867
0.077468 0.346328 -0.043493
0.012226 0.567441 0.079903
-0.031287 0.482771 -0.073790
-0.068863 0.509676 -0.046166
-0.015630 0.481160 0.076510
0.089713 0.503987 0.011384
0.056564 0.524317 0.064106
0.073083 0.638460 -0.040294
0.089421 0.735940 0.002190
0.081443 0.357292 0.035228
-0.015224 0.739857 0.082156
-0.073483 0.573886 0.040535
0.048806 0.271796 -0.069833
-0.084840 0.577178 0.001060
-0.055371 0.242149 -0.064903
0.008700 0.347087 0.083562
0.089804 0.308518 0.012233
0.065917 0.243431 0.058922
-0.042455 0.801964 0.073210
0.058976 0.598380 0.056322
-0.004817 0.363925 0.081905
0.079075 0.376146 0.031988
0.013934 0.454651 0.080040
-0.076255 0.587490 -0.036919
-0.056777 0.393465 -0.062715
-0.062562 0.633237 0.056921
0.054571 0.682275 0.071161
0.009884 0.775985 -0.082953
0.059795 0.340053 -0.059368
-0.088138 0.706082 0.016820
0.058974 0.368417 0.055692
-0.058196 0.651584 0.060851
-0.046572 0.541486 -0.068376
0.068891 0.219250 0.056789
0.028714 0.314402 -0.079285
0.033033 0.609276 0.068871
0.057277 0.638360 0.057537
0.073841 0.699314 -0.050340
-0.044062 0.421286 -0.069463
0.064094 0.775489 0.056501
-0.054892 0.417013 -0.057412
0.087894 0.548813 -0.000104
0.020588 0.443470 0.077604
-0.022542 0.645564 0.077070
-0.078952 0.754069 0.033661
0.031376 0.717988 0.080761
0.080193 0.345979 0.036298
-0.063656 0.592125 -0.055080
-0.082725 0.528991 -0.014281
-0.087811 0.724044 -0.019649
0.032906 0.499461 -0.076664
0.086231 0.551978 0.023143
-0.035258 0.449150 0.075540
-0.078112 0.333591 -0.041218
0.062060 0.704208 -0.060157
0.030114 0.621830 0.074824
0.043879 0.602720 0.068858
-0.045610 0.673893 0.071940
-0.051007 0.366951 0.066703
0.072860 0.599032 0.042427
-0.018142 0.417441 -0.079609
-0.021232 0.209478 0.082728
-0.054267 0.631168 -0.060839
-0.088436 0.664121 0.017101
-0.079983 0.622618 0.034503
-0.000208 0.397425 0.082956
0.072665 0.349911 -0.049672
-0.031930 0.432833 -0.074792
0.006297 0.552248 -0.079745
0.088586 0.591124 0.014398
-0.091101 0.777943 0.002813
-0.072849 0.490339 -0.041357
0.017998 0.244823 -0.082402
-0.027999 0.638182 0.079024
-0.046344 0.678936 -0.067360
0.033632 0.539528 -0.070819
0.024949 0.591521 0.075051
0.085888 0.521842 0.017115
0.069416 0.649290 -0.050511
-0.084850 0.274472 0.037054
-0.081715 0.676035 -0.033108
0.026695 0.379498 -0.076930
-0.058718 0.501647 -0.061670
0.082528 0.256250 0.029750
-0.045680 0.516624 -0.072660
-0.086827 0.770241 0.008722
0.086272 0.239720 -0.029377
-0.085202 0.781270 -0.030756
-0.074170 0.307103 -0.051539
0.082118 0.421946 0.026978
-0.014087 0.543499 0.079131
-0.082929 0.371505 0.019884
-0.089361 0.516105 0.005131
0.087659 0.720859 -0.025924
0.093096 0.232921 -0.004379
0.009671 0.457782 -0.076924
0.088576 0.644640 0.005321
0.049899 0.423502 -0.066104
-0.025248 0.693213 -0.079162
-0.043634 0.303971 0.071474
-0.071743 0.599111 0.046990
0.075851 0.600444 -0.033378
0.064233 0.773472 0.063341
0.060976 0.340565 -0.060964
-0.070144 0.689501 0.050769
-0.058976 0.712076 0.061464
0.081747 0.509810 -0.029168
0.039158 0.420083 0.074019
0.060640 0.563224 -0.060117
0.057417 0.405595 -0.063608
-0.084384 0.456019 -0.017722
0.044999 0.281237 -0.071616
0.001925 0.782269 0.086433
-0.038443 0.527525 -0.068983
-0.087304 0.410630 -0.002747
0.066943 0.468897 -0.052958
0.086392 0.576101 0.025903
0.014366 0.707548 0.075550
0.043945 0.676755 0.069508
0.058213 0.281473 0.068597
0.083739 0.498656 -0.014825
0.042695 0.522673 -0.067904
-0.062459 0.475315 -0.055218
0.091010 0.209589 0.004392
0.012492 0.231784 -0.080576
-0.069944 0.427152 0.044455
-0.088765 0.698448 -0.014119
0.082368 0.205592 0.034489
0.093371 0.717965 -0.000906
-0.067372 0.408596 -0.047639
-0.074863 0.225268 -0.046560
0.082915 0.648440 0.025659
-0.019467 0.681038 0.081589
-0.088270 0.693159 -0.000784
0.024647 0.547143 0.078192
0.042102 0.255691 0.070340
-0.046397 0.505472 -0.068976
0.050692 0.695071 -0.069226
-0.066311 0.774352 -0.056711
-0.007120 0.333867 0.081861
-0.017762 0.449541 0.080177
-0.063988 0.454169 0.056902
-0.000700 0.345652 0.077193
-0.005099 0.564880 -0.080202
-0.052037 0.709799 0.064865
-0.062320 0.496607 -0.057353
0.035738 0.733361 0.074778
-0.006973 0.744195 -0.084953
-0.089720 0.233911 -0.011018
-0.044247 0.489743 0.071133
-0.020958 0.463380 -0.074480
0.061105 0.720717 0.059743
0.006835 0.707402 0.082396
0.085444 0.611875 -0.017566
-0.084798 0.720411 -0.026116
-0.088233 0.663822 -0.014245
-0.010634 0.550111 0.078993
0.045233 0.672632 0.072062
0.079021 0.661776 0.040148
-0.033277 0.381574 0.074209
0.062286 0.242389 0.063755
0.086671 0.471099 0.018050
0.020074 0.716600 0.080628
0.052071 0.548602 -0.066154
-0.069816 0.452423 -0.048996
0.056520 0.528452 -0.060333
0.063112 0.566825 0.052086
-0.022114 0.360276 -0.079417
-0.053252 0.425668 0.060601
0.074548 0.767786 0.045655
0.085570 0.784905 0.029938
-0.057586 0.794251 -0.070486
-0.040960 0.546601 0.070795
0.079233 0.579289 -0.030357
0.086176 0.753437 0.029949
0.080250 0.276557 0.042443
0.038762 0.299046 -0.078370
0.049795 0.380015 -0.063584
0.072433 0.339547 -0.049917
0.033409 0.427918 -0.074628
0.042714 0.316407 -0.068418
-0.030050 0.305003 0.076750
-0.065768 0.707536 0.057450
0.085693 0.326068 -0.007787
-0.068639 0.588132 0.045787
0.053257 0.240364 0.068010
-0.090957 0.253052 0.001650
0.011918 0.263163 -0.081481
-0.030723 0.797563 0.079000
-0.019202 0.662313 0.076845
0.078389 0.544058 0.036483
-0.083994 0.474836 -0.004280
0.086697 0.647651 -0.008043
0.043630 0.534114 0.072304
0.087290 0.698194 0.012435
0.055490 0.555834 0.062000
0.078604 0.558168 -0.036692
-0.087863 0.295710 0.015011
-0.089075 0.697274 -0.016118
-0.060457 0.285464 0.064040
0.078919 0.502028 0.027756
0.091435 0.222405 0.009833
-0.020732 0.548196 -0.079668
0.034156 0.341426 0.076041
-0.059252 0.698442 0.061612
0.048962 0.504571 -0.067710
-0.025342 0.671095 0.079874
0.051043 0.568049 0.065822
0.043637 0.568991 -0.071123
-0.074936 0.209427 -0.051806
-0.068587 0.579342 -0.052123
-0.086888 0.663902 0.015009
0.042826 0.639797 0.069288
0.069264 0.544423 -0.052646
-0.085673 0.663967 0.005947
0.035065 0.363259 -0.074710
0.087531 0.720951 -0.021728
0.023563 0.217909 -0.080594
-0.016357 0.282557 0.081558
0.056730 0.726276 -0.066022
0.075518 0.745653 -0.044679
-0.062120 0.712681 -0.062961
0.082558 0.501730 -0.023996
0.078719 0.419442 -0.028293
-0.079182 0.333960 -0.035623
-0.084115 0.426432 0.014499
-0.030678 0.392619 -0.079411
0.086393 0.791551 0.021395
0.057395 0.592314 0.062013
0.084674 0.397470 -0.006423
-0.079485 0.288363 -0.035822
0.021786 0.435512 0.076577
-0.015438 0.537805 0.080401
0.069887 0.283919 -0.047011
-0.082043 0.335616 0.032039
-0.084834 0.610487 -0.014709
0.084622 0.448421 -0.018944
-0.064164 0.665259 -0.058446
0.017025 0.392073 -0.078816
0.070041 0.279462 0.047019
0.082492 0.512445 -0.020151
-0.033523 0.411869 -0.079201
-0.055798 0.266883 -0.068385
0.052232 0.319897 -0.063559
-0.008582 0.506339 -0.079719
0.050978 0.517881 0.063494
-0.051985 0.273934 -0.069664
0.068812 0.634483 -0.046756
-0.086979 0.527614 -0.022783
0.086436 0.441831 0.006899
-0.082392 0.740970 -0.033508
0.027696 0.717465 -0.074646
-0.007183 0.663150 -0.078454
-0.064964 0.354159 -0.053039
0.038090 0.262679 -0.077451
-0.025740 0.318404 -0.079618
0.072054 0.350411 -0.044183
-0.087938 0.513403 -0.001848
0.043741 0.416075 0.072273
-0.087965 0.378961 -0.001946
-0.089622 0.328194 -0.004124
0.080723 0.460272 -0.031966
0.089286 0.781405 0.007736
-0.068258 0.730288 0.055764
-0.068463 0.737346 -0.053887
-0.082143 0.481602 -0.024345
0.073614 0.201765 0.052148
-0.006443 0.277276 0.084521
-0.008818 0.603435 -0.078456
0.089900 0.712702 -0.011782
0.004263 0.428853 0.079544
-0.033704 0.350899 -0.077523
0.050083 0.643933 -0.070840
-0.021262 0.587781 0.078148
-0.008858 0.460243 -0.080419
0.019931 0.433272 0.074046
-0.000621 0.218129 0.084604
-0.007085 0.766151 -0.083254
-0.067440 0.611393 -0.049429
-0.085538 0.596950 -0.023068
0.062868 0.439046 0.053545
-0.023587 0.781080 0.080022
0.035966 0.421672 -0.073583
0.008213 0.457656 -0.080361
-0.078672 0.455781 0.030739
0.006232 0.612652 -0.079357
-0.004840 0.435543 0.079050
-0.055874 0.287887 0.063824
0.084202 0.598292 0.031172
-0.040953 0.387557 -0.071136
0.087312 0.329088 0.003516
-0.078204 0.724263 -0.042981
0.078941 0.301564 0.038817
-0.031612 0.405895 0.071935
0.013777 0.695497 0.082272
0.036285 0.776614 -0.075374
0.089857 0.240183 -0.006190
-0.048342 0.691753 -0.069987
-0.066255 0.633645 -0.055438
-0.059699 0.617597 0.058189
-0.022407 0.217723 0.078783
-0.056365 0.699700 0.063223
0.086003 0.649066 0.013853
-0.030123 0.580192 -0.075939
0.069695 0.393130 -0.044849
0.014106 0.636867 0.080229
-0.064009 0.335957 -0.056658
-0.082824 0.441591 -0.031192
-0.014001 0.767571 0.082068
-0.069883 0.782777 0.052442
0.038456 0.622265 0.071409
0.087860 0.347380 0.015954
-0.057105 0.449689 -0.054913
-0.078893 0.710624 0.043284
0.001252 0.782544 0.083661
-0.087666 0.352119 -0.020762
-0.020381 0.312119 -0.077477
-0.087431 0.484220 0.003712
-0.090985 0.303867 -0.008291
-0.021878 0.443475 -0.077597
0.007311 0.762532 -0.085714
0.089114 0.489641 -0.013776
-0.085888 0.625418 0.008324
-0.012630 0.271232 0.080745
-0.026300 0.408076 0.078267
-0.090125 0.290981 0.003750
0.087420 0.295908 0.000015
-0.085554 0.253013 -0.024033
0.008638 0.739593 0.080576
0.037784 0.261151 0.076404
0.055663 0.683381 0.060701
-0.008946 0.678488 -0.081574
0.074647 0.208691 0.050730
0.089404 0.511150 -0.015777
-0.065175 0.696229 0.053379
-0.085395 0.418571 0.015629
-0.086430 0.614488 -0.014110
-0.067147 0.623434 0.050477
-0.045992 0.597112 -0.071009
0.042665 0.349212 0.074125
-0.032969 0.419425 -0.069798
-0.029202 0.737918 0.077563
0.083727 0.425858 -0.018983
0.089196 0.669307 0.004189
0.083234 0.767666 0.035277
-0.086328 0.659216 0.009808
0.044245 0.561866 -0.070481
-0.051685 0.693981 0.067009
-0.087654 0.362175 -0.010343
0.022177 0.223076 -0.078898
-0.063841 0.293639 -0.058245
-0.035526 0.755473 0.076510
0.082302 0.359753 -0.030311
0.085752 0.719190 0.022074
-0.079150 0.676608 0.037562
0.087323 0.352889 -0.018350
-0.025376 0.264731 -0.080651
-0.085666 0.614925 0.015585
0.086451 0.469253 0.009285
-0.032700 0.293082 -0.077690
-0.049864 0.370450 0.066684
-0.090115 0.495721 -0.001626
0.004380 0.571554 -0.081381
-0.047033 0.397546 0.066536
-0.022547 0.656061 0.081170
-0.086197 0.343263 -0.019717
-0.066461 0.510340 -0.046245
0.086022 0.653064 -0.013894
0.071243 0.232200 0.056994
-0.002491 0.242524 0.084040
0.092567 0.801358 0.005029
-0.011435 0.247582 0.080294
-0.026505 0.503000 0.073912
0.089793 0.738910 0.011344
0.088340 0.327240 0.012895
0.078514 0.575859 -0.035756
0.085621 0.377775 -0.018266
-0.040672 0.417707 0.073603
-0.051479 0.225180 -0.073422
0.004541 0.517453 0.077585
-0.079304 0.287211 -0.040601
0.087829 0.639915 0.011914
0.050775 0.573931 0.065638
-0.039756 0.706047 0.073579
-0.065173 0.637328 -0.060160
0.041088 0.763068 0.068915
-0.013308 0.690449 0.082816
0.071876 0.449679 -0.045234
-0.055685 0.684047 0.062187
0.089045 0.385825 -0.010641
0.079590 0.695809 -0.036240
0.090171 0.607584 0.013565
0.029000 0.793984 0.075755
0.055922 0.532796 0.058504
-0.080521 0.461412 0.038427
0.066719 0.323022 0.051933
0.060312 0.357778 0.059900
-0.043335 0.800846 -0.072849
0.019469 0.542870 -0.074297
-0.051710 0.286830 -0.063275
-0.076173 0.631116 0.040804
0.020050 0.618528 -0.076680
0.049268 0.333550 -0.065214
0.027184 0.423190 0.074812
0.032622 0.546553 0.070125
0.021834 0.662479 -0.078321
0.015878 0.533823 -0.079374
-0.062883 0.317084 0.056255
0.080691 0.656045 0.034464
0.087973 0.454275 -0.008820
0.052942 0.787062 -0.070928
-0.072519 0.645327 -0.045228
-0.001480 0.216666 -0.082135
0.000644 0.222041 0.084323
-0.062714 0.736610 -0.056381
-0.030019 0.621953 -0.076121
0.030788 0.651941 -0.073379
-0.053080 0.590114 0.063373
-0.082756 0.421837 -0.028493
0.076357 0.692847 -0.041784
0.089757 0.250774 0.001942
-0.089428 0.302018 -0.014320
0.018845 0.224299 -0.081280
0.052676 0.765376 0.067999
0.084917 0.307195 -0.019212
0.071381 0.681579 0.042623
0.052922 0.459711 -0.060973
0.047014 0.397562 0.062338
-0.004738 0.704990 0.079406
0.023544 0.603825 -0.078018
0.063735 0.264044 -0.061242
-0.017109 0.334628 0.080871
0.015290 0.690075 -0.082866
0.054019 0.641370 -0.067338
0.001471 0.212225 -0.085264
0.015157 0.762785 -0.081230
0.040129 0.258436 0.070997
0.088075 0.355794 -0.006082
-0.089315 0.239139 -0.000462
-0.088633 0.247923 -0.026408
-0.034784 0.542868 0.078064
-0.077835 0.628026 0.039390
-0.090143 0.454218 0.002996
-0.049719 0.761342 -0.070320
0.083921 0.402062 -0.017976
-0.026890 0.370971 0.076428
-0.087449 0.497156 -0.004794
0.015708 0.224903 0.079944
-0.086224 0.499247 0.003336
-0.059942 0.384246 0.057203
0.021260 0.252000 0.080787
0.082536 0.540623 0.003781
-0.041107 0.638099 -0.071171
-0.047014 0.402630 -0.068653
0.021181 0.489750 0.076977
0.063034 0.300471 -0.060814
0.078669 0.547120 -0.034154
-0.028622 0.797240 0.080386
0.087312 0.443138 0.004676
-0.033543 0.530458 0.072391
-0.056485 0.589341 -0.060982
0.002251 0.766992 0.079046
0.077154 0.609476 0.041200
0.003610 0.326805 -0.081450
0.069119 0.518376 0.047237
0.069872 0.653976 -0.053136
-0.008429 0.558545 0.078332
-0.080062 0.500518 -0.032698
0.064390 0.376766 -0.054431
-0.059767 0.410969 -0.060409
0.066576 0.535620 0.052102
0.016053 0.429361 -0.078779
0.041266 0.413123 0.068491
-0.081617 0.497419 -0.031112
0.070202 0.315160 0.052286
-0.076778 0.684425 0.042066
-0.033297 0.282058 -0.077072
-0.066684 0.421891 0.044469
-0.079504 0.223713 0.038671
-0.060759 0.420291 -0.056841
0.085741 0.547378 -0.017392
0.077245 0.600246 -0.036917
-0.081753 0.675809 0.027875
-0.035573 0.452405 0.075218
-0.036661 0.294018 -0.074937
0.046350 0.435430 0.066755
0.081725 0.630489 -0.030999
0.072425 0.765745 0.052804
0.073079 0.238960 0.054812
-0.044579 0.795036 -0.073108
0.091048 0.216435 -0.001691
0.043838 0.456736 0.065156
0.087881 0.286190 -0.011053
-0.048978 0.232844 0.071457
0.060395 0.396085 -0.057422
-0.058948 0.593973 -0.057388
0.035417 0.531553 -0.072216
0.069601 0.548012 0.052993
-0.023426 0.677612 -0.076288
-0.034715 0.391792 -0.073138
-0.088366 0.761458 -0.021127
0.085654 0.752131 -0.027095
0.091844 0.383614 -0.007957
0.001304 0.362060 0.083462
0.071746 0.500102 0.038413
-0.001028 0.313750 0.082693
0.044670 0.601537 0.072815
-0.006754 0.233095 0.081491
0.078298 0.392989 -0.029907
-0.076786 0.204951 -0.046835
-0.059392 0.331098 0.058419
-0.020631 0.229496 -0.083373
0.051653 0.461789 -0.065639
-0.063459 0.455834 -0.053206
0.075506 0.316939 -0.041536
-0.085787 0.737778 -0.026488
0.033817 0.443355 -0.071821
0.092387 0.768525 0.015409
-0.092139 0.250977 -0.007328
-0.083786 0.293606 0.029928
-0.040477 0.469000 -0.071492
-0.073513 0.487252 0.043947
0.087734 0.371640 -0.010130
-0.064848 0.636463 -0.060702
-0.081920 0.283910 0.030927
0.075788 0.534971 -0.039131
-0.090504 0.692462 0.003028
-0.084708 0.631767 0.014001
0.034480 0.613440 -0.068859
-0.053197 0.337340 0.068341
-0.049902 0.416489 0.066431
-0.059635 0.476861 0.056915
-0.067206 0.486154 0.053189
-0.039474 0.684525 -0.070402
0.020198 0.326197 -0.079559
0.082880 0.355810 0.026856
0.068288 0.324898 0.054092
-0.071774 0.512819 -0.043883
0.090152 0.232072 -0.007564
-0.041560 0.258926 -0.074351
-0.058894 0.578017 0.060239
0.038762 0.402985 0.070857
-0.089659 0.691730 -0.000566
0.055609 0.376246 -0.062579
0.082119 0.462242 -0.025779
-0.078272 0.495019 0.030076
-0.030980 0.523134 -0.075792
-0.036940 0.760073 0.075424
0.030765 0.619755 -0.077488
-0.085764 0.483481 -0.023608
0.009695 0.765082 -0.080150
-0.088268 0.491252 -0.004362
0.047444 0.270851 -0.068970
-0.024341 0.336516 0.081032
-0.016868 0.291136 0.079553
0.044809 0.225962 -0.069569
-0.042277 0.358916 -0.073930
-0.043123 0.354255 0.067819
0.064773 0.586745 0.056416
-0.076503 0.216041 -0.044928
-0.071605 0.243218 -0.051543
-0.033620 0.724925 0.074800
0.038389 0.539739 0.074199
-0.014618 0.804605 0.084027
0.085107 0.461304 0.011576
0.092273 0.732922 0.017335
-0.040917 0.283849 -0.074161
0.065825 0.282003 0.058730
0.009316 0.326805 0.081502
0.058328 0.747588 0.063772
-0.024368 0.382663 0.080105
-0.009186 0.560261 0.078368
-0.075105 0.599757 0.040082
0.035025 0.461449 -0.071165
-0.009094 0.543709 -0.081527
0.080715 0.710698 0.036364
-0.022687 0.565806 -0.076353
0.055605 0.342571 0.065121
0.050494 0.202538 -0.071765
0.029562 0.276904 -0.078066
-0.015391 0.273801 0.081580
0.082311 0.703914 -0.023062
-0.014189 0.245892 0.079205
0.027786 0.589266 0.077837
0.041191 0.340006 0.073872
0.071739 0.765260 -0.051514
-0.055676 0.585943 0.060756
-0.007562 0.782991 0.081226
0.088215 0.688750 -0.011964
0.085149 0.613633 -0.028588
-0.058810 0.755104 -0.065442
0.056841 0.368211 0.061979
0.074807 0.452513 0.037818
-0.021584 0.717678 0.079681
0.048789 0.389983 -0.069565
0.024047 0.427091 -0.075142
0.085272 0.502626 0.023784
0.070819 0.315313 -0.052053
0.050704 0.504417 0.064188
-0.073417 0.401806 -0.047070
0.093119 0.262352 0.003637
-0.075390 0.558669 -0.044186
0.019998 0.371299 -0.078477
-0.076961 0.447596 0.032558
0.025146 0.436950 -0.073442
-0.086235 0.469268 -0.025442
-0.076239 0.266603 0.039434
-0.056934 0.679873 -0.067164
-0.070891 0.528321 0.048957
0.071585 0.473271 0.041018
-0.076895 0.454960 0.040695
0.070925 0.407243 -0.043052
-0.081764 0.564194 -0.010264
-0.072434 0.483079 0.046441
0.034678 0.718673 -0.076616
0.014540 0.504430 -0.078844
-0.076832 0.304496 -0.041322
0.063856 0.725355 0.054485
0.041630 0.361683 -0.072880
0.062198 0.684197 0.058197
-0.057603 0.309067 -0.063919
-0.073700 0.359981 -0.044542
-0.082933 0.278968 0.034609
0.012942 0.705859 -0.080167
-0.076278 0.298575 -0.041560
-0.076312 0.648254 -0.035672
-0.044150 0.712326 0.068039
-0.030528 0.448694 -0.074878
0.065157 0.632987 0.057198
0.053832 0.404775 0.063096
-0.088535 0.718299 -0.019151
0.083123 0.514735 -0.001707
-0.049797 0.774046 0.066490
0.084901 0.303867 0.031422
0.086492 0.502608 -0.010273
-0.077853 0.762443 0.044464
0.046237 0.257217 -0.069088
0.084960 0.684283 0.013104
0.049939 0.227625 -0.071259
-0.052938 0.565593 -0.058669
0.051386 0.475586 -0.064822
0.092375 0.225566 -0.018130
0.060231 0.252014 0.059885
-0.062661 0.238199 -0.059205
0.068285 0.579047 0.049230
-0.077120 0.398511 -0.039724
0.087009 0.221293 0.004553
-0.090250 0.292122 -0.004918
-0.088189 0.217671 0.030367
0.080539 0.606866 -0.029672
0.085803 0.782002 0.028702
-0.034532 0.205974 0.076974
-0.076888 0.507213 0.040535
-0.072330 0.217340 0.052359
-0.062315 0.316181 -0.058147
0.049314 0.360044 0.068080
0.083148 0.745978 -0.034423
0.038117 0.693261 0.073511
0.079295 0.357584 0.027982
0.020218 0.336811 0.081228
0.003466 0.422291 0.078306
0.052874 0.298526 0.068015
0.018989 0.484249 0.074182
-0.020912 0.476996 0.075529
0.063865 0.274228 -0.054543
-0.080976 0.632350 -0.034044
0.034542 0.298790 0.074934
-0.072076 0.405952 -0.043882
0.080054 0.725238 -0.044313
0.047941 0.576146 -0.070511
0.053272 0.552702 0.064370
-0.052222 0.205384 -0.067902
0.002681 0.613122 -0.080400
0.067290 0.383359 -0.051117
-0.011893 0.764931 -0.083601
-0.081560 0.411799 0.032993
0.077803 0.255161 -0.040084
-0.076804 0.622830 -0.046296
-0.086494 0.535822 0.002440
0.057527 0.368050 0.058856
0.060590 0.471684 -0.055324
-0.079134 0.383851 0.038059
-0.077703 0.487243 -0.034984
0.070526 0.632139 -0.049801
0.083118 0.718708 -0.031237
0.029963 0.732499 -0.076405
-0.043825 0.784636 0.069071
-0.054938 0.705525 0.066852
-0.075259 0.747940 -0.046760
0.018031 0.635467 -0.078028
0.083119 0.704001 0.038003
-0.038277 0.628744 0.071893
0.062794 0.333617 0.056323
0.037531 0.744417 -0.074927
-0.088289 0.560090 0.004725
0.043338 0.683586 0.070130
0.085875 0.644599 -0.022853
0.087874 0.741504 -0.017811
0.011726 0.798901 0.082323
-0.073844 0.626338 -0.044579
0.085372 0.772707 0.032979
-0.047090 0.327415 0.069726
0.089390 0.732977 -0.011718
-0.061787 0.282652 0.059075
-0.067459 0.215691 0.054170
0.012206 0.736912 0.084540
-0.086515 0.454874 -0.001406
0.026191 0.696603 0.076383
-0.041926 0.502245 -0.071907
0.029133 0.290005 -0.077014
-0.033854 0.549460 0.078584
0.082653 0.285784 0.033625
0.088005 0.376589 0.005336
-0.058112 0.568072 -0.059727
0.080460 0.270254 0.031803
0.089859 0.776932 0.005480
-0.082501 0.507202 0.002563
-0.070342 0.356260 -0.049382
0.083856 0.459762 -0.012757
-0.088580 0.311188 0.021315
-0.075057 0.362040 0.045763
0.088218 0.714429 0.022510
-0.087476 0.682474 -0.011024
0.013322 0.769887 0.084059
0.073470 0.693185 0.046273
0.077916 0.791204 0.038938
0.075033 0.496128 0.039944
0.088784 0.779649 0.003927
0.081313 0.337095 0.025972
0.083183 0.558312 -0.022059
0.045536 0.467365 -0.068152
-0.064549 0.769485 -0.055720
-0.081481 0.326611 -0.022905
-0.089170 0.489721 -0.002636
0.065186 0.326816 -0.050825
-0.035756 0.646049 0.076300
-0.048214 0.642030 -0.067675
0.063555 0.341301 0.051954
-0.087520 0.663797 -0.015848
-0.089788 0.667864 0.014911
0.004052 0.262460 0.082227
0.030248 0.521620 -0.072776
-0.069482 0.492613 0.048142
0.048772 0.314110 -0.069491
-0.028321 0.592825 -0.076878
0.069088 0.227670 -0.051427
-0.087296 0.306414 -0.022336
0.027223 0.645028 -0.079141
-0.075451 0.724310 -0.047794
-0.018849 0.394831 -0.077040
0.085742 0.410275 -0.010855
-0.092549 0.682775 0.002305
0.092667 0.789341 0.015425
-0.047641 0.291048 -0.072141
-0.006117 0.693881 0.082886
-0.009874 0.788991 -0.085466
-0.077267 0.523910 0.038848
-0.074548 0.610669 -0.042321
-0.015060 0.613211 0.082671
-0.087027 0.342595 0.018594
0.020658 0.683197 0.080872
-0.079121 0.346842 0.035090
0.076485 0.435449 -0.041634
0.053065 0.560984 -0.059230
0.073645 0.323457 0.049316
-0.025097 0.540787 0.073767
0.087961 0.406687 0.016609
-0.091057 0.466059 -0.001872
-0.082622 0.649750 0.024496
-0.038806 0.642627 0.070671
-0.017110 0.474568 -0.076185
0.071912 0.541058 -0.051890
0.006966 0.790863 0.087043
0.015548 0.419176 -0.075803
0.051760 0.328703 0.068099
0.039421 0.251858 -0.073155
-0.086902 0.496892 0.010648
0.057123 0.784659 0.065427
-0.087355 0.730175 -0.019004
0.085965 0.697625 -0.019397
0.053414 0.781565 -0.066015
0.066283 0.551356 0.057707
0.085774 0.510859 -0.018825
0.008168 0.280356 0.085142
0.081463 0.675375 0.038279
-0.071363 0.388602 0.046308
-0.055157 0.800934 0.067658
-0.068148 0.422511 -0.055116
-0.076310 0.489560 0.035596
0.054722 0.432109 -0.060700
-0.020951 0.388967 -0.076769
0.084334 0.263485 0.027150
0.082849 0.512219 0.020931
-0.000299 0.381012 -0.080999
0.090211 0.564618 -0.002995
0.018251 0.764907 0.082483
0.061298 0.665133 0.054814
-0.024062 0.480511 -0.076269
0.052952 0.355748 0.064192
-0.030247 0.441023 -0.075367
-0.093967 0.740685 -0.011363
0.072101 0.526167 -0.040181
0.041583 0.399471 0.071910
-0.085716 0.647901 0.018092
0.080907 0.674621 -0.040211
0.003588 0.641754 -0.083215
0.056603 0.305547 -0.066667
-0.077971 0.570906 0.034291
0.083768 0.775711 0.035038
0.085609 0.657793 0.018213
-0.063596 0.461888 0.057971
0.047963 0.362293 -0.067750
-0.026647 0.645616 0.077704
-0.009345 0.750315 -0.080109
0.016717 0.655887 -0.078490
0.061010 0.573475 0.055189
-0.053551 0.243198 0.071272
-0.078057 0.213747 -0.041465
0.032216 0.661816 0.076127
0.061973 0.469968 -0.058057
0.090342 0.263663 -0.009398
-0.066040 0.614287 -0.052512
0.081074 0.770716 0.029339
-0.001450 0.353685 -0.077512
0.084541 0.755098 -0.025050
-0.076953 0.614946 0.038798
0.062923 0.682154 -0.058966
-0.066495 0.220538 0.055736
0.053183 0.231456 0.065758
-0.046044 0.400557 -0.067410
-0.092182 0.235772 0.010796
-0.026458 0.563966 -0.073725
-0.014888 0.442314 0.079421
-0.029113 0.398221 0.076577
-0.086646 0.519148 0.001539
0.078742 0.628248 -0.034975
0.050677 0.511837 0.068243
-0.038101 0.433798 -0.070120
-0.069361 0.512052 0.046381
-0.083157 0.429013 0.027255
-0.067756 0.535598 -0.049584
0.041814 0.390090 0.071243
0.081216 0.522145 0.037103
-0.081164 0.214713 0.034170
-0.047186 0.760484 0.067292
0.028782 0.548977 0.069948
-0.066308 0.638872 0.051817
-0.081033 0.723327 -0.036072
0.052789 0.349721 -0.061826
-0.009430 0.264193 0.082306
-0.078746 0.271239 0.034508
0.091633 0.269214 -0.004625
0.079002 0.402520 0.033102
0.051375 0.432400 0.069166
-0.040165 0.438648 0.073734
0.020189 0.676281 -0.079361
-0.012962 0.444629 0.077865
-0.010100 0.655458 -0.077640
0.017613 0.651406 -0.080875
0.058446 0.595521 0.057843
-0.057060 0.548436 -0.059007
-0.082115 0.270817 -0.026478
0.058721 0.293912 0.062668
-0.000139 0.715190 0.078616
0.018411 0.499381 -0.077715
-0.075509 0.408068 0.038945
-0.046405 0.291617 0.070628
0.082268 0.588894 -0.021765
-0.045265 0.251044 -0.076369
0.060269 0.616685 0.060165
0.028339 0.475631 0.075277
0.031998 0.668434 0.079110
-0.054272 0.642362 -0.062838
-0.055197 0.513651 -0.060445
-0.003587 0.750392 -0.081025
0.066307 0.439536 0.055300
0.031197 0.428196 -0.075668
-0.080310 0.689632 0.035650
-0.080892 0.586829 0.028256
0.085465 0.701769 0.029305
-0.092411 0.204282 0.001507
-0.063413 0.513346 -0.055150
0.058490 0.559459 -0.058122
-0.080500 0.402680 -0.037690
-0.021069 0.734899 -0.080724
0.015722 0.279723 -0.080523
0.050968 0.643088 -0.068330
0.068563 0.460290 -0.052083
0.057737 0.226385 0.063534
0.071459 0.801474 0.047930
0.086870 0.734631 0.029410
-0.075691 0.489416 -0.039617
-0.055618 0.510356 -0.058267
-0.052628 0.547577 0.062800
0.034336 0.225013 0.077118
-0.013400 0.539558 -0.079617
-0.060111 0.691815 -0.058596
0.019003 0.749359 0.080584
-0.029453 0.512369 0.074120
-0.073684 0.794973 -0.044340
0.085374 0.625684 0.015938
0.080464 0.438576 0.021885
0.033481 0.303217 -0.077350
-0.019628 0.395922 -0.079005
-0.051290 0.675018 0.065497
0.062058 0.278999 0.057267
-0.058665 0.657085 0.063199
0.005016 0.327607 0.082579
0.076393 0.213943 0.048699
-0.014147 0.732671 0.082780
0.081752 0.548059 -0.035501
-0.022817 0.455626 -0.075643
0.088098 0.658966 -0.011307
-0.024755 0.227268 0.081611
0.041210 0.626589 -0.071086
0.072875 0.727575 -0.050110
0.078265 0.336081 -0.034092
-0.003320 0.306238 0.083680
0.007722 0.715968 -0.084584
0.050197 0.690181 0.067617
0.052071 0.478684 0.070974
-0.085996 0.403923 0.014591
0.074159 0.226292 0.055248
-0.030594 0.503449 0.073232
0.039267 0.627468 -0.071406
0.082768 0.412742 -0.029206
0.077924 0.385987 -0.034674
-0.012817 0.457157 -0.079270
0.075101 0.490813 -0.038860
0.075521 0.230446 0.043481
-0.092352 0.683534 0.001179
-0.073857 0.802732 0.050321
-0.035499 0.295005 0.074373
0.090070 0.747736 0.011774
0.005724 0.320274 0.081962
0.037707 0.774232 -0.076311
0.045109 0.246263 0.072177
0.037727 0.574595 0.071496
-0.019379 0.704826 -0.080792
0.082036 0.539499 -0.036952
-0.077662 0.291018 0.034044
0.060064 0.332968 0.060805
-0.034739 0.275444 0.078472
-0.090500 0.690791 -0.000836
-0.092550 0.797532 0.014623
0.072348 0.574039 0.039902
-0.081781 0.323734 0.011888
-0.008106 0.522835 -0.078921
-0.070245 0.239559 -0.053460
0.002767 0.467969 -0.077727
-0.089041 0.659080 0.007874
-0.029504 0.216886 0.079425
-0.039196 0.754125 -0.073158
-0.016637 0.490823 -0.078512
0.010962 0.224913 -0.082824
-0.085842 0.474234 0.020567
0.057964 0.422335 -0.061941
-0.051549 0.383267 0.063072
-0.019041 0.780736 -0.083102
-0.081343 0.340394 -0.027913
-0.002214 0.630063 -0.079642
0.067483 0.217159 0.052908
-0.011307 0.259683 0.082766
-0.071816 0.675651 -0.050845
-0.016483 0.337191 0.083459
-0.058440 0.768501 -0.065041
-0.085586 0.322502 -0.015153
0.048816 0.670525 -0.068752
-0.018809 0.664048 0.075511
0.064130 0.381096 0.051967
0.085160 0.358306 -0.027611
-0.033335 0.391073 -0.073759
0.025609 0.202243 0.081669
0.080638 0.681307 0.035255
0.057806 0.459015 0.058535
0.088759 0.204877 -0.008558
-0.066594 0.694610 -0.056622
0.025974 0.496865 -0.076690
0.041142 0.769964 0.077915
-0.065103 0.405807 -0.055199
-0.060445 0.295545 0.059863
0.067775 0.379374 0.052989
0.043640 0.349086 0.070153
-0.024545 0.562722 -0.079983
0.061776 0.621551 -0.057264
0.071807 0.533387 -0.044160
0.087887 0.355891 -0.002340
0.063203 0.787348 0.062370
0.055393 0.693190 -0.066035
0.085032 0.517746 0.021990
0.080231 0.279303 -0.034561
0.034827 0.215826 0.080580
0.061107 0.363535 -0.057584
0.084049 0.429631 -0.008260
-0.088553 0.792191 -0.028056
-0.072736 0.683471 0.044989
0.081480 0.495730 0.020297
-0.084859 0.788442 0.032520
-0.044045 0.337844 -0.066779
-0.011973 0.592166 -0.079370
0.056316 0.707122 -0.066950
0.056390 0.765994 -0.062630
-0.070827 0.558638 0.045783
0.050077 0.340869 0.065153
-0.068546 0.411477 -0.046813
-0.069413 0.557610 0.053966
0.038184 0.514385 0.074376
0.063575 0.459117 0.053800
0.070860 0.455073 -0.043442
0.018407 0.214337 0.084150
0.071304 0.473997 0.049033
0.093032 0.270040 -0.012325
-0.086464 0.457500 -0.001265
-0.070901 0.412570 -0.042731
0.089377 0.667765 -0.008472
-0.024295 0.509815 -0.076316
-0.014371 0.697036 -0.082553
-0.023593 0.719417 -0.078478
0.038184 0.367911 -0.071966
-0.082379 0.790011 0.034974
-0.084667 0.689460 0.020031
-0.070879 0.514273 0.045464
-0.093789 0.687591 0.011940
-0.054771 0.321810 -0.062838
-0.030888 0.337128 0.077759
-0.043709 0.222356 -0.074538
-0.057224 0.514174 0.059357
-0.062162 0.747422 0.058457
-0.059802 0.732503 0.058689
0.088820 0.279459 -0.021212
-0.085999 0.379517 0.023859
-0.076943 0.314737 0.036601
-0.068535 0.645939 -0.047920
-0.083068 0.279674 0.028709
0.037395 0.374352 -0.077133
0.077644 0.316258 0.034982
-0.023720 0.511055 0.075481
-0.073277 0.286461 -0.047052
0.020539 0.317245 -0.079629
-0.089009 0.537780 0.004922
-0.067557 0.678833 0.053162
-0.044501 0.565137 0.069855
-0.000780 0.785582 0.081006
-0.079491 0.521428 -0.034400
-0.073441 0.652072 -0.046473
0.008753 0.789448 0.082947
-0.091514 0.734005 0.005977
-0.088979 0.251425 -0.009247
-0.055930 0.783389 -0.068613
-0.077079 0.391872 -0.046153
-0.069803 0.246437 -0.053453
0.045470 0.319649 0.068841
0.032874 0.661238 -0.077186
0.055150 0.722638 0.065716
0.046372 0.635632 -0.071039
0.087448 0.347274 -0.007224
-0.070370 0.346685 -0.050906
-0.083709 0.346783 0.020193
0.008231 0.585439 0.081743
0.020457 0.765725 -0.081357
0.004415 0.242051 0.080278
0.090644 0.770677 0.000349
0.085450 0.341601 -0.030228
0.057105 0.205296 0.061343
-0.084470 0.670745 -0.023547
-0.036841 0.792916 -0.077071
-0.080888 0.489754 -0.020207
-0.078163 0.606402 0.036878
0.035954 0.309200 0.075906
0.086518 0.461458 -0.002385
-0.028262 0.656423 0.073686
0.020471 0.677326 -0.078847
0.003714 0.628007 0.079971
0.026061 0.414352 -0.073868
0.021692 0.301250 -0.082132
-0.079526 0.307726 -0.038393
-0.044190 0.579034 0.069977
-0.077713 0.413146 -0.039613
0.006303 0.445580 -0.080631
0.002691 0.299443 0.081932
-0.056590 0.789199 -0.067591
-0.084561 0.640954 -0.004092
0.009667 0.800254 0.085165
-0.082117 0.307792 0.032896
0.073045 0.716307 -0.045952
0.013189 0.699278 -0.082765
0.076513 0.759937 0.044955
-0.063352 0.263112 0.058077
0.087331 0.627444 -0.015837
0.014866 0.514251 -0.076685
0.092043 0.769295 0.000306
-0.088095 0.702107 0.011188
-0.069950 0.348427 -0.047899
-0.089625 0.745028 0.000163
0.034595 0.761859 -0.073311
0.016114 0.747735 -0.076380
0.053014 0.241669 -0.059880
-0.041281 0.494099 -0.069252
0.065481 0.736013 0.059712
0.069755 0.550189 -0.045831
-0.054377 0.688285 -0.063704
-0.007746 0.548191 -0.079635
-0.087824 0.728493 0.019024
-0.040088 0.629654 0.076266
-0.073650 0.480747 0.043487
0.015588 0.535853 0.080450
0.075299 0.220321 -0.047398
0.053453 0.219632 0.066412
-0.087447 0.623631 -0.005403
-0.070652 0.724729 -0.055040
0.068896 0.215517 -0.053281
-0.025733 0.757926 -0.084368
0.071276 0.482806 -0.049210
0.088032 0.725864 -0.011539
-0.084033 0.715062 0.029101
-0.046243 0.284852 -0.070194
0.060743 0.594959 -0.059782
0.084772 0.321025 0.027105
-0.063239 0.749472 -0.058590
-0.032870 0.455963 0.073767
-0.014677 0.632971 -0.080769
0.022238 0.233263 0.083268
0.083435 0.333048 0.028893
-0.062012 0.738089 -0.059996
-0.062127 0.637777 0.056960
-0.014394 0.619658 -0.076946
0.073192 0.362663 -0.048293
-0.089772 0.728451 0.017016
-0.073524 0.516594 -0.042211
0.042697 0.749202 -0.071774
0.069386 0.783317 0.055207
-0.039594 0.504670 -0.066752
-0.051441 0.764362 0.070332
0.029754 0.394890 -0.075973
0.002005 0.306354 0.082361
0.045346 0.265425 0.070629
0.055275 0.425477 -0.063593
0.035087 0.752790 0.074203
0.021073 0.701743 0.080108
0.043314 0.524878 0.070915
0.007463 0.633505 -0.081736
0.043028 0.554594 -0.070152
-0.076321 0.653672 -0.042931
0.019356 0.570387 0.079412
0.090541 0.207693 -0.010465
-0.027578 0.254349 -0.080762
-0.025095 0.584382 -0.078376
0.088801 0.315978 -0.003526
0.052067 0.276594 0.068154
-0.066121 0.645014 -0.052511
-0.022002 0.252884 -0.081776
0.082384 0.281890 -0.031372
-0.083679 0.787034 -0.028707
0.087634 0.398543 0.025216
0.011491 0.479875 0.080475
-0.086182 0.476984 -0.009564
0.029627 0.207874 -0.078760
-0.020989 0.757382 0.079303
-0.070443 0.452926 0.046265
0.074886 0.754674 -0.043830
-0.076860 0.754098 0.048264
-0.088035 0.260105 -0.002908
0.047718 0.702785 -0.071540
0.083273 0.362391 -0.031189
0.090235 0.541495 0.013891
-0.042320 0.324738 0.069927
0.086406 0.502825 -0.019114
-0.063254 0.727065 0.056741
0.077236 0.755744 0.044107
-0.087270 0.268888 0.001313
-0.062511 0.234036 0.060700
-0.071833 0.599112 -0.046382
0.061897 0.708522 -0.056361
0.084467 0.385750 0.021218
0.092994 0.207248 0.007972
-0.088862 0.239313 0.027618
-0.037250 0.399597 0.072289
-0.064244 0.358010 0.052965
0.066124 0.291157 0.056111
-0.025004 0.777709 -0.078653
-0.067376 0.366217 -0.055019
0.033787 0.416190 -0.076922
0.048155 0.372418 0.065974
-0.026837 0.570913 0.075074
0.084291 0.575742 0.013559
-0.030549 0.255186 0.077668
-0.030009 0.627647 -0.077355
-0.080228 0.370640 0.037622
-0.075559 0.483141 0.043151
-0.076039 0.601414 0.033055
-0.052748 0.221898 0.070801
-0.081602 0.676839 0.035074
0.060760 0.523607 -0.048676
-0.090614 0.218957 -0.012994
0.084112 0.307944 0.031769
-0.086969 0.447942 0.016951
-0.082684 0.719671 0.031894
-0.086188 0.547731 0.011277
0.007765 0.536036 -0.081910
-0.046346 0.432356 -0.069896
0.077746 0.525930 0.032592
-0.077718 0.399969 0.039637
0.082721 0.760359 -0.043470
-0.009372 0.724639 0.084006
0.086635 0.530878 -0.000505
-0.016888 0.699633 -0.080779
0.067615 0.745535 0.054985
0.086400 0.384086 -0.024713
-0.079807 0.677648 0.036046
-0.060081 0.488058 -0.055752
0.068866 0.775018 0.056051
-0.018332 0.285860 0.081195
-0.010583 0.212251 0.080387
0.015414 0.401158 -0.079770
-0.030397 0.761978 -0.077674
0.050603 0.456366 -0.062912
-0.073205 0.507427 0.046169
-0.065701 0.391658 -0.057150
0.090879 0.639427 0.000085
-0.081205 0.545618 -0.035701
-0.033322 0.639675 0.075672
-0.058197 0.445299 -0.062746
-0.035647 0.676414 0.074699
-0.069264 0.287242 -0.050050
-0.011299 0.406005 0.080985
0.084273 0.380159 0.029884
0.084590 0.797853 -0.031956
-0.050064 0.413633 -0.068006
-0.027026 0.528466 0.076826
0.078923 0.247080 0.045853
0.087231 0.661071 -0.013968
-0.076770 0.650057 -0.038088
-0.074331 0.538905 -0.039777
0.065096 0.315271 -0.057293
-0.071606 0.673556 -0.043774
-0.067438 0.407315 -0.051487
-0.076351 0.557380 -0.043543
0.071132 0.619975 -0.044373
0.087037 0.548475 0.017482
-0.045217 0.249893 -0.074515
0.086153 0.502567 -0.010188
0.052349 0.369266 -0.067727
-0.082330 0.744360 0.029476
-0.087022 0.774768 -0.020741
0.073966 0.765341 0.047509
0.044814 0.517652 -0.069211
-0.088631 0.268247 -0.022034
0.063784 0.437729 0.059453
0.042317 0.235657 -0.068729
-0.062396 0.313905 0.054460
-0.078072 0.579503 -0.042216
-0.087455 0.266991 -0.011521
-0.030691 0.278845 -0.077995
0.008330 0.497567 0.077164
-0.092373 0.230212 -0.004186
0.086422 0.459891 -0.009995
-0.041499 0.295005 0.070641
0.040318 0.706987 -0.077904
-0.084904 0.270781 -0.029951
-0.083185 0.503771 -0.020456
-0.022263 0.480532 0.076300
-0.085794 0.747027 -0.003241
-0.072733 0.563922 0.041589
0.083528 0.430839 -0.023766
-0.041842 0.596841 0.074362
0.013448 0.584109 -0.078671
0.021620 0.435752 0.078038
-0.038296 0.505204 -0.072586
-0.086559 0.726000 -0.022044
-0.072655 0.493535 -0.043324
0.062215 0.635588 0.059156
0.010503 0.391859 0.079045
-0.080729 0.410544 -0.033873
-0.011010 0.235738 0.084335
0.081992 0.353594 0.023615
-0.019215 0.784162 -0.082149
0.092181 0.249345 0.009962
-0.012888 0.666024 0.079000
0.083346 0.694031 -0.037404
0.090457 0.746047 -0.002535
0.081984 0.270982 0.037235
-0.058219 0.219234 0.065102
-0.028232 0.335216 -0.075903
-0.005125 0.629461 0.080068
-0.091754 0.761078 0.012022
-0.076805 0.498700 -0.033888
-0.072982 0.469409 -0.042751
-0.081661 0.563732 -0.024584
-0.052102 0.381157 -0.066781
-0.033751 0.362406 0.073080
0.000247 0.549604 -0.081485
-0.072392 0.251683 -0.049165
-0.016370 0.549704 0.075430
-0.079986 0.373579 0.034279
-0.075304 0.563185 0.038312
-0.043431 0.346321 -0.070782
-0.011393 0.703774 0.080418
-0.024817 0.542278 -0.076982
0.080883 0.543993 -0.028562
-0.084405 0.574611 0.020608
-0.030067 0.379437 0.072226
0.027919 0.461772 -0.078005
-0.028242 0.758402 0.077333
-0.053271 0.629283 -0.066207
-0.080164 0.496027 0.032916
0.030624 0.591962 0.077403
0.090217 0.701186 -0.010974
-0.039875 0.345064 0.072685
0.031986 0.730506 0.077696
0.065523 0.435896 -0.050244
-0.029161 0.768496 0.077445
-0.087043 0.740928 -0.029146
-0.043489 0.428984 -0.069376
0.005209 0.683564 0.081163
-0.089882 0.273598 0.001607
-0.092156 0.686822 0.016182
-0.010146 0.321085 0.081288
-0.085289 0.415614 0.018238
0.067398 0.308176 -0.055791
-0.015786 0.453571 0.077177
0.075195 0.263593 0.048446
0.002201 0.687565 -0.082922
0.073715 0.630346 -0.045536
0.052468 0.476370 0.061199
0.076135 0.345368 0.037735
-0.033965 0.247063 0.076587
-0.040410 0.252717 0.075706
0.090200 0.223768 -0.001454
0.023716 0.262438 0.080073
-0.087384 0.204909 0.033934
0.065379 0.324517 0.055684
0.083336 0.576720 0.015266
-0.089158 0.743925 0.018971
-0.078896 0.256025 -0.041010
0.058622 0.534390 -0.058514
0.022939 0.224945 0.080014
0.058571 0.241063 -0.066652
0.092384 0.751562 0.006293
0.033349 0.340138 0.070490
-0.092260 0.795656 -0.014926
-0.035652 0.612290 0.074845
0.078194 0.355065 -0.032621
0.086822 0.409603 -0.004488
-0.048047 0.617799 0.067999
0.023256 0.777653 0.080450
-0.026406 0.658633 0.075952
0.048899 0.300139 0.066625
-0.091152 0.671030 -0.014485
-0.084923 0.742970 -0.026739
-0.087419 0.550843 0.002943
0.072861 0.314501 0.051484
0.007401 0.378042 -0.075384
-0.047836 0.469046 -0.067564
0.078822 0.355401 -0.035710
0.087367 0.523530 -0.015342
0.057272 0.467486 0.061074
0.050355 0.692322 0.066094
-0.074867 0.661427 0.039910
0.086798 0.392081 -0.008955
-0.048294 0.335213 0.066635
-0.070460 0.454976 0.044748
0.059258 0.545622 -0.060838
0.079015 0.675866 -0.037842
0.019919 0.722345 -0.080309
0.075830 0.448393 0.033064
-0.014051 0.748852 -0.081275
0.025843 0.681605 0.076153
0.088884 0.609992 -0.010162
-0.090382 0.631731 0.005903
-0.031395 0.274630 0.074186
0.085828 0.651076 0.000167
0.010468 0.756573 -0.081034
0.018832 0.542201 0.077031
0.087326 0.708626 0.017316
0.086590 0.446424 -0.013986
0.072731 0.529028 0.045255
-0.020196 0.331738 0.077066
-0.052956 0.415950 0.064893
-0.047132 0.791674 0.075088
0.062870 0.336954 0.061696
-0.064513 0.213658 0.062106
0.063859 0.619462 0.054644
0.085164 0.481595 -0.016936
-0.084770 0.792208 -0.028079
0.088953 0.730432 -0.010531
0.061694 0.377951 -0.059454
0.061776 0.449138 0.059415
-0.043537 0.201463 0.075770
-0.057968 0.613401 0.062193
-0.075717 0.535976 0.035331
0.087736 0.705892 -0.010880
0.029628 0.767360 -0.082166
-0.011598 0.403825 -0.083886
0.081488 0.455857 -0.024714
0.079117 0.770065 -0.038382
-0.082629 0.459351 0.000948
0.088165 0.746368 -0.016130
-0.064287 0.465452 -0.052229
0.028694 0.577315 -0.073969
-0.005490 0.326088 -0.083014
0.033645 0.377243 0.068461
-0.021772 0.608516 0.079486
0.091822 0.382111 0.001359
-0.084308 0.443421 0.028207
-0.086799 0.437375 -0.005731
-0.013341 0.394706 0.078878
0.040948 0.680879 0.070917
0.068469 0.520001 0.050880
-0.034552 0.477909 -0.070740
-0.066005 0.676328 -0.057945
0.085170 0.297830 0.020899
0.030246 0.616019 0.074322
0.032060 0.322200 -0.075336
-0.025622 0.347550 0.082053
0.061689 0.333236 0.064865
0.074494 0.417370 0.039840
-0.056027 0.552594 -0.061865
-0.051449 0.756593 -0.070254
0.009288 0.232476 0.082909
-0.065923 0.260454 -0.049995
0.008682 0.630166 -0.082180
-0.090319 0.273864 0.018489
-0.015562 0.465061 -0.079056
0.070197 0.275691 -0.050012
-0.039879 0.592074 -0.069758
-0.075754 0.769373 0.043668
-0.081695 0.480325 0.026949
0.080985 0.709622 0.037858
0.009455 0.484804 -0.082659
-0.082691 0.360184 -0.028985
-0.085547 0.255310 -0.015690
0.053882 0.207256 0.067497
-0.086117 0.317587 -0.024166
0.077419 0.443809 -0.039304
-0.023932 0.384796 0.078849
-0.040793 0.239578 -0.074597
-0.079398 0.796228 0.036918
0.060293 0.389541 0.058010
0.084048 0.502044 0.014403
-0.064880 0.687196 0.057912
0.087509 0.498406 0.012965
0.069903 0.745388 0.045608
0.089013 0.260654 0.020233
0.084620 0.243250 0.029998
-0.078774 0.707868 -0.035577
0.047660 0.523463 0.070178
-0.018845 0.382971 -0.080688
0.089738 0.671549 -0.004618
-0.008018 0.266125 0.081777
-0.011582 0.336085 -0.080791
-0.086123 0.334098 0.012455
-0.025026 0.546903 0.075522
-0.078249 0.565844 -0.034572
0.066076 0.671180 -0.051450
-0.041179 0.755177 -0.072496
-0.046460 0.665614 0.072935
0.088930 0.516614 0.001835
-0.089542 0.725801 -0.000922
-0.065099 0.656680 0.056206
-0.054969 0.402821 0.059373
0.078600 0.515031 0.029738
0.077686 0.765523 -0.043023
-0.012924 0.609161 0.081462
-0.090709 0.203556 0.005628
-0.079207 0.716821 0.040902
-0.088098 0.717560 -0.009069
-0.086293 0.662539 0.015388
0.086198 0.306141 0.023537
0.085848 0.677299 -0.009814
0.030205 0.511651 0.078409
-0.091229 0.728467 0.018936
-0.018473 0.265203 -0.080514
0.086903 0.720969 0.030929
0.049688 0.465574 -0.060993
-0.072957 0.263868 0.055583
-0.082991 0.420061 -0.027187
-0.034138 0.686112 0.075450
-0.075598 0.488617 0.038041
0.062081 0.741430 -0.059295
-0.001485 0.573037 0.078798
-0.041101 0.560676 0.068337
-0.035999 0.667023 0.075156
-0.030818 0.387726 -0.074370
-0.071481 0.651420 0.044151
-0.039893 0.657103 0.066236
-0.029968 0.592784 0.075470
-0.083910 0.735433 0.037134
0.079520 0.410338 0.038749
-0.080018 0.634300 0.032399
-0.005724 0.383355 0.081003
0.080424 0.672979 -0.040795
0.067961 0.355379 0.057068
0.074798 0.510133 0.039364
0.001651 0.618464 0.078804
0.066416 0.666748 -0.053050
-0.049121 0.361329 0.062946
-0.037899 0.320361 -0.073533
0.038035 0.277040 0.074366
-0.031045 0.259595 0.076287
0.056773 0.658597 -0.066028
0.089024 0.564894 -0.005519
-0.086058 0.417173 0.022310
-0.063878 0.328533 0.058813
-0.086887 0.214013 -0.029098
0.037560 0.524335 0.071888
0.066583 0.233207 -0.053873
0.074350 0.795432 -0.051982
0.073591 0.271052 -0.045570
0.091303 0.208629 -0.005879
0.012220 0.296013 -0.083547
-0.075969 0.307104 -0.047028
0.027516 0.256167 0.080703
-0.045765 0.349063 -0.071220
0.082996 0.210742 -0.034720
-0.036578 0.396150 0.072562
-0.009670 0.641764 0.081546
0.063688 0.483259 -0.051890
-0.074883 0.626001 -0.046494
0.027550 0.733898 -0.083048
-0.018856 0.618974 -0.077729
0.093450 0.204015 -0.004933
0.063265 0.244397 -0.055617
-0.012289 0.318637 0.076680
0.037409 0.346295 -0.074228
0.076349 0.477257 0.037036
0.059846 0.271086 0.064504
0.082809 0.726568 0.031367
0.000797 0.489529 0.078823
0.079724 0.435488 -0.032490
-0.085402 0.488679 0.014192
-0.079427 0.527611 -0.033531
-0.084609 0.563474 0.021259
