ply
format ascii 1.0
comment Generated synthetic body scan — Fashion Tech Week 2
comment Source: parametric body model (chest/waist/hip elliptical cylinders)
comment NOTE: Synthetic data — real iPhone LiDAR pending device provisioning
element vertex 1701
property float x
property float y
property float z
end_header
-0.129992 1.008745 0.010804
0.127682 1.036352 -0.024869
0.004145 0.933398 -0.101025
-0.044774 0.904866 0.097960
0.128486 1.095440 -0.035117
0.020787 1.062170 -0.099991
-0.086437 0.980187 0.073348
-0.103839 0.990361 -0.058751
-0.121621 1.086131 0.044860
0.107350 0.942859 0.057167
0.046535 1.063302 -0.091541
0.051941 0.905296 0.096417
-0.133073 1.074912 0.022985
-0.040903 1.016393 -0.092763
0.116116 0.993060 -0.039183
0.119932 1.041592 0.035831
-0.107255 0.914330 0.064529
-0.100228 0.942670 -0.067967
0.025015 0.985504 -0.098055
0.111488 1.022120 -0.051697
0.134659 0.929097 -0.000453
-0.089210 0.974579 -0.066973
0.134055 0.952239 0.006669
0.030184 1.026543 -0.092596
0.082922 1.087629 0.082511
0.107464 0.934245 -0.062705
0.072153 0.938575 0.084752
0.011191 1.019141 -0.098584
-0.034817 0.993899 0.095509
-0.123531 1.044549 -0.035037
-0.100823 0.958033 -0.063182
0.033908 1.007537 0.094061
-0.039637 0.978756 0.092112
0.102731 0.956522 0.061175
0.131160 1.047033 0.001319
0.008836 1.058290 0.100316
-0.127152 0.970791 -0.008809
-0.029035 1.025466 -0.092671
0.034136 0.934756 -0.095992
0.118551 1.059980 0.042715
-0.016353 0.956024 0.094206
0.015316 0.935440 -0.098532
-0.133074 1.086045 0.013133
0.053597 0.987418 0.087037
-0.101803 1.029796 0.057982
-0.014269 1.062701 0.098810
0.118644 1.039678 0.028853
0.010039 1.011957 -0.095681
-0.033656 0.977513 0.091988
0.127236 1.084648 -0.031169
0.102877 0.922993 -0.066122
-0.030319 1.081817 -0.098470
-0.059797 1.047224 0.089835
-0.023519 1.015949 0.096693
-0.128159 0.961922 0.015390
-0.080292 0.927601 0.076528
0.105209 0.992103 -0.055029
0.094316 1.056286 0.071942
-0.021135 1.047119 -0.098577
-0.101653 1.029687 -0.061806
0.046380 1.099272 -0.095307
-0.127700 1.096120 -0.026237
-0.089226 0.981711 -0.071481
0.131284 0.938704 -0.023902
0.105443 0.991668 0.052021
0.106564 1.071184 0.057692
-0.103446 0.993185 0.062269
-0.130640 0.963349 0.019720
0.038590 1.044126 0.091986
0.115075 1.029411 0.049404
0.137053 1.092000 0.014003
0.012352 1.010334 -0.101002
-0.136813 1.093704 0.006589
0.073014 0.961076 -0.082739
-0.084343 1.073512 0.076173
-0.040596 0.969998 -0.094438
-0.135254 1.065241 0.006541
-0.103283 1.086351 -0.065200
-0.085457 1.023055 0.072484
0.117707 1.047535 0.046715
0.126237 1.089886 -0.034013
0.069347 0.975671 -0.083541
-0.051232 1.002853 0.091980
0.131942 1.079223 -0.024635
-0.040579 1.038361 0.093345
-0.123195 1.073774 0.033217
0.002462 1.024032 -0.100755
-0.047943 1.050093 0.094160
-0.059718 0.903157 0.093259
-0.108285 0.968817 0.054062
-0.130050 1.058235 0.016470
0.093873 0.981949 0.069324
0.133702 0.971357 0.011339
0.116943 1.091475 -0.047243
-0.077977 1.010608 0.079188
0.107276 0.940936 0.059137
0.006426 0.997202 -0.099073
-0.035690 1.005316 0.095239
0.056473 1.100937 0.093198
0.125276 1.045241 -0.024507
0.113884 1.001533 -0.048808
0.100447 0.990509 0.057726
0.106335 1.085173 -0.061328
0.102481 1.029628 -0.058424
-0.089213 0.973303 -0.072939
-0.128538 0.993433 -0.019448
0.027228 0.958294 0.096801
0.098302 1.091861 0.071611
-0.100983 1.043230 -0.061897
0.058618 0.978751 -0.087541
-0.055801 0.938728 -0.091913
0.058386 0.934852 0.093404
-0.031571 0.997495 0.097607
-0.124822 0.996810 -0.032137
-0.095807 0.983057 -0.068506
0.120999 1.072550 0.043104
-0.100523 1.092834 -0.067559
-0.014550 0.972070 -0.097399
0.057076 0.957967 0.088281
0.002037 1.055288 0.099959
-0.007263 0.989628 0.098689
0.121343 0.941290 -0.037542
-0.107669 0.936161 0.055753
-0.130510 0.957541 -0.019671
-0.022787 0.904283 -0.098825
-0.092809 1.090917 0.077656
0.100884 0.988865 0.059192
-0.078549 0.919361 -0.078685
-0.066795 0.935282 -0.085276
-0.007313 0.967923 0.099324
0.123825 1.011072 0.023401
-0.068799 1.044723 -0.082901
-0.040779 0.964717 -0.092770
0.131889 1.091823 0.016608
-0.045872 1.053567 -0.092535
0.124535 1.065013 -0.035713
0.055701 0.966696 0.087648
-0.129759 0.977428 -0.011757
-0.043972 1.004476 -0.091481
0.014714 0.991947 0.098123
-0.000210 0.958439 -0.099992
0.090254 1.100524 -0.077115
0.053675 1.073711 -0.092313
-0.006570 0.951961 0.097444
0.048860 1.077886 -0.099961
-0.110296 1.015896 0.051879
-0.013242 0.905534 0.099972
0.062255 0.969169 0.086566
0.113595 0.904020 -0.054516
-0.119329 0.918690 0.042831
0.083799 0.935077 -0.072403
0.072435 0.995384 0.082269
0.013187 0.976843 -0.096979
0.101706 0.931261 0.060851
0.130961 0.982568 0.006386
0.129499 0.960538 -0.000251
0.112855 0.980954 0.042705
-0.127965 0.938922 0.024614
0.091412 1.022190 -0.064128
0.059807 0.908585 -0.094216
-0.127798 0.976785 0.015866
-0.104958 1.084387 -0.065021
-0.088628 0.983797 -0.071754
0.096819 0.989263 0.065109
-0.027529 0.914291 0.101094
-0.038192 1.019910 0.094310
-0.100809 1.086190 0.072669
-0.017906 0.959002 0.098044
-0.002986 0.980741 0.099795
-0.083000 1.015442 0.076914
-0.095151 0.916002 0.069703
-0.137384 1.086450 0.010719
0.061627 0.997386 0.083798
0.029855 0.923847 -0.097308
0.084449 0.965401 -0.073909
-0.001026 0.976315 0.097054
0.095833 0.973937 0.069285
-0.020450 1.036030 -0.097077
0.113916 0.968182 -0.046216
0.129760 0.963033 0.022985
0.129860 0.963838 0.008182
0.051010 1.054306 0.092707
-0.053127 0.964676 -0.089198
0.135566 0.901953 -0.020584
0.001106 0.974053 -0.101708
-0.118569 0.957344 -0.044793
-0.040725 1.082452 -0.097748
0.018161 0.992728 0.096795
-0.050797 0.944676 -0.093607
-0.061383 1.097504 0.091529
0.023464 0.952545 0.098730
0.011540 1.052994 0.102380
-0.063665 1.032750 -0.085147
0.017597 0.995766 -0.094781
-0.115435 0.980237 -0.045191
0.125954 1.077533 0.034791
0.124236 0.995401 0.026413
0.027049 0.972868 0.092266
-0.030784 0.971582 0.097932
-0.109623 0.953347 0.054733
0.113409 0.982775 0.043901
-0.020861 0.926320 -0.098858
-0.031321 0.917230 -0.096410
-0.076093 1.009476 0.080894
-0.120279 0.989621 -0.036314
0.106736 0.937663 0.058633
-0.116721 0.917683 0.050987
0.082224 0.929814 -0.079666
-0.064634 0.963993 -0.084542
0.105931 0.990869 0.058206
0.077111 0.941958 -0.081160
-0.055959 1.051147 -0.091862
-0.131555 0.939275 0.026315
-0.048194 0.922599 -0.089216
0.068573 1.100208 0.092117
-0.126442 0.986511 -0.028697
-0.097018 0.936141 -0.073868
0.120474 1.083979 -0.041600
0.114212 0.948045 0.042665
-0.095352 1.086272 0.072704
0.127051 0.925378 -0.039320
0.030205 1.067780 0.099502
0.054451 0.936423 -0.091113
0.138017 1.090996 0.000395
0.129663 1.015859 0.019168
-0.064650 0.937808 0.084544
0.018918 1.070726 -0.100230
0.100039 0.981842 0.058018
-0.095879 1.044425 0.066412
0.086428 1.031965 0.070053
0.019754 1.043207 0.094786
-0.129281 0.971059 -0.002326
-0.056900 1.093077 0.091130
0.026856 1.014105 0.092300
-0.102580 0.917828 0.064641
-0.041285 0.913840 -0.095018
0.090602 1.050212 0.066616
-0.134175 1.068158 0.014091
-0.024023 1.039904 0.097083
-0.093770 0.955300 0.068399
0.056376 0.946679 -0.091941
0.116320 1.014080 -0.041871
0.004891 0.940932 0.099429
-0.088266 0.972345 -0.068626
-0.055584 1.027475 -0.087738
0.074285 0.959218 -0.082576
0.104677 0.975611 -0.059010
-0.128246 0.976483 0.021343
0.127826 0.997571 -0.010362
0.129159 1.032667 -0.019791
-0.130459 1.055131 -0.003905
-0.128412 1.035559 -0.023821
-0.069123 0.906111 -0.090863
-0.095676 1.082038 0.069186
-0.067961 1.018386 -0.082781
-0.135509 1.085394 -0.008446
0.132477 1.092102 0.024620
0.076025 0.997047 -0.074292
0.122743 1.084164 -0.033907
0.132981 0.975241 0.017400
0.030184 0.956940 -0.092476
-0.102642 0.922773 0.069810
-0.112281 0.987942 -0.052188
-0.132153 1.038050 0.000299
-0.131227 1.098540 -0.033697
-0.127640 1.004931 0.008326
0.076585 1.047465 -0.074993
-0.055952 1.077961 -0.091740
-0.111206 1.012448 0.052954
-0.048947 0.932936 -0.096290
0.127708 1.069965 -0.019775
0.111740 1.016820 0.045602
-0.101108 1.054881 0.058963
0.089037 1.029420 -0.071796
-0.009381 0.912681 -0.099668
0.123295 0.933810 -0.041254
0.128892 0.962362 0.027723
0.086503 0.957959 -0.074149
0.037876 1.070356 -0.097378
0.054926 1.019931 -0.087375
-0.112839 0.919131 -0.058114
0.128275 0.977738 0.029562
-0.127406 1.012983 -0.024951
-0.112060 0.949677 0.053445
-0.133630 0.908435 -0.016345
-0.008838 0.978980 -0.099805
-0.104287 0.994641 -0.056383
-0.036033 1.080451 0.097581
-0.109495 1.082428 -0.061285
0.114149 1.005152 0.046656
0.129642 0.994376 0.001289
-0.108789 1.029426 0.058726
0.004915 0.954133 -0.094617
0.061797 0.957224 -0.085479
-0.132850 0.901124 -0.032397
0.089904 0.918570 -0.072339
0.094905 0.934876 0.075918
0.131092 1.029461 -0.021155
0.119340 0.942179 -0.044451
-0.108786 0.923714 -0.061837
0.122594 1.021679 0.036158
-0.122959 1.032354 0.024179
0.060034 0.910413 0.088724
-0.093989 1.057352 -0.069617
0.050184 1.023919 0.088342
-0.128372 0.982494 0.009787
0.037833 1.099080 0.103526
0.058511 0.900457 0.090998
0.000323 1.009376 0.098120
0.127338 0.936531 0.014670
-0.025898 0.966234 -0.099633
-0.049430 0.926684 0.093670
-0.040086 1.033881 -0.092097
-0.079945 0.980704 -0.078997
0.123522 1.096014 0.039587
-0.051880 1.029180 0.095875
-0.124249 1.084391 -0.043446
0.120914 0.951035 -0.046752
-0.107275 0.965634 0.055023
-0.132200 0.976834 -0.002391
0.001791 1.068488 -0.101536
0.042033 0.942349 -0.097056
0.121752 1.090088 -0.049681
-0.137789 0.907039 0.004522
0.048313 1.080960 0.096591
0.012519 0.993019 -0.099893
0.091606 1.007708 0.070771
-0.119623 1.098857 0.051462
-0.092602 1.075625 -0.074004
-0.047870 1.084249 -0.093165
-0.011099 1.018405 -0.096971
0.045275 1.091728 0.096327
0.127655 1.039327 -0.012926
0.059641 1.063684 0.087432
0.109484 1.045507 0.057744
-0.070271 1.060307 -0.085438
0.107663 1.025817 -0.053195
-0.125789 1.047456 -0.035606
-0.107338 0.986949 -0.057008
-0.129467 1.042727 -0.023196
0.126224 0.953638 0.027696
-0.055642 1.028239 -0.088228
-0.081507 1.004952 0.077292
0.125145 1.081192 -0.040087
0.052168 1.034246 0.091312
-0.041087 1.022159 0.093587
-0.131751 0.965960 -0.001309
-0.135108 1.074609 0.014902
-0.107726 0.913968 0.059877
-0.054497 1.080327 0.093783
0.079078 1.032680 0.080342
0.057834 0.938768 -0.091335
-0.133211 1.080994 0.032004
-0.119322 0.967614 -0.044931
-0.127822 0.933940 -0.025541
-0.113565 0.966127 -0.044928
-0.037169 1.093126 -0.096120
-0.089323 1.052910 -0.071329
-0.019241 1.086155 0.104888
-0.121898 0.958169 -0.032792
0.003508 0.917464 0.101047
-0.110705 1.014533 -0.051829
-0.116689 0.996969 0.038786
0.127467 1.044074 0.026216
-0.011556 1.011882 -0.099013
-0.023297 0.983756 0.094333
0.121543 0.903297 -0.049255
-0.025288 0.992585 0.098137
0.135784 0.930529 -0.002350
-0.131672 1.083114 0.024720
0.128973 1.081815 0.017184
0.118936 1.060492 0.043681
0.116304 0.931147 0.047949
0.126552 0.936344 0.033470
-0.014507 1.013853 0.095201
-0.059945 1.046132 0.087631
0.102058 1.082437 0.064854
-0.129113 1.084108 0.036342
-0.090962 0.927618 0.078609
-0.091594 1.096268 -0.078693
0.045815 0.931365 0.090662
0.114006 1.067168 -0.050259
-0.130276 1.019147 -0.008031
-0.093218 1.036972 -0.068071
0.126877 1.019514 0.021179
-0.120004 1.079431 -0.039977
-0.089595 1.029013 0.072747
0.119380 1.068746 -0.046717
0.102887 0.932070 -0.066971
-0.089014 1.076144 -0.076236
0.014566 1.100696 -0.102125
-0.084133 1.034577 -0.071023
0.133123 1.097106 0.009697
-0.035911 0.945276 -0.093553
0.055383 1.066018 0.086427
-0.055812 0.935297 -0.090286
0.129905 1.005163 0.005445
-0.051610 1.034093 0.090868
-0.126665 1.035377 -0.008053
-0.066606 1.035215 0.085880
-0.047195 0.962911 -0.093793
-0.136513 1.096791 -0.013869
0.132274 0.902549 -0.025909
-0.082545 1.024375 0.072622
-0.024138 1.073476 -0.100348
0.067866 1.079304 -0.087367
-0.001480 1.042133 0.100564
0.006022 1.017530 -0.101985
-0.101512 0.990112 0.058774
0.089078 0.991226 0.072323
0.130601 0.984763 0.005345
-0.002929 1.037782 -0.102209
0.048410 1.046504 0.089995
0.119900 1.006819 0.028277
-0.132848 1.048363 0.003878
-0.072707 1.003093 0.076558
-0.047706 0.921579 -0.093408
0.105722 1.074049 0.064709
0.092811 1.076253 0.079866
-0.106633 0.954054 0.058083
-0.132960 1.059182 -0.011879
0.059962 1.000960 -0.084792
-0.115603 0.928171 -0.051356
0.107142 0.980024 -0.056842
0.028023 0.915666 0.096018
-0.109360 1.053120 -0.058784
-0.076545 0.941403 -0.077431
-0.021115 0.934525 -0.096491
0.132846 0.939374 -0.008401
-0.128756 0.947376 0.023955
-0.088410 1.039012 0.070363
0.073658 1.028970 -0.073557
0.058044 0.930989 0.091989
0.127670 1.045407 0.023853
-0.126397 0.970603 0.035186
0.002866 0.993281 0.098062
-0.106328 0.925722 0.058034
0.132520 1.042363 -0.008656
-0.074779 0.973943 0.079845
-0.032545 1.027930 -0.093255
-0.003137 0.987041 0.097537
-0.046284 0.910170 0.096330
0.005766 1.044632 0.098289
-0.115187 1.011726 -0.044103
0.018921 0.986804 0.097771
-0.024990 0.938293 -0.098067
-0.053937 1.024671 -0.088524
-0.114236 0.955150 0.048803
0.129101 0.988515 0.017224
0.131791 0.915205 0.017526
-0.129790 1.058600 -0.020074
0.072779 0.922590 -0.084416
-0.110710 1.078864 -0.059570
-0.124303 1.074956 0.039099
0.101687 1.096139 -0.067921
0.043762 1.083631 0.095677
-0.086035 1.094750 0.077747
-0.124414 1.080766 -0.036971
-0.035119 0.923278 0.093232
0.129799 0.985807 0.000904
-0.131942 0.917844 0.033407
0.124284 1.007761 0.030601
0.057996 1.008270 0.083526
-0.134393 1.089697 -0.017801
-0.129396 1.092915 -0.032203
0.132922 0.952837 -0.010045
-0.102197 1.018230 -0.058528
-0.063002 0.993842 -0.085726
0.029863 1.013608 0.096718
0.102412 1.005946 0.063670
-0.106680 1.083406 -0.058081
0.091889 1.077624 -0.078938
-0.114814 0.926976 -0.052235
-0.119894 0.972865 0.032613
-0.117438 1.050168 -0.047886
-0.128889 1.036917 0.018982
0.079368 1.031327 0.075354
-0.007304 1.102568 -0.103829
-0.124049 0.969267 -0.018825
-0.103061 1.004678 0.056974
-0.125266 1.096508 -0.036513
0.003853 1.040982 0.100803
-0.114605 1.030348 0.042339
-0.098395 0.931055 -0.072417
0.022062 0.953330 0.095278
-0.001121 0.978137 -0.099424
-0.130257 0.992600 -0.012845
0.084770 0.998832 -0.073043
0.076609 1.080227 -0.084606
-0.135741 0.922002 0.006396
0.040041 0.951028 0.095215
-0.009819 0.930636 -0.099728
-0.111494 1.049254 0.051086
-0.112784 1.097811 -0.056139
0.107684 1.079670 0.063468
-0.089452 1.045022 -0.073112
-0.097443 0.904732 0.076822
-0.063809 0.972440 0.084994
0.133898 1.074394 -0.011229
-0.120540 1.026039 0.042254
-0.057321 0.941083 -0.089880
-0.087229 0.996660 -0.066751
0.107597 0.914434 0.063798
-0.000733 1.005291 -0.096952
-0.057149 1.082250 0.087949
0.038861 0.907713 -0.098916
-0.100673 1.026247 -0.061547
-0.053274 0.948062 0.088755
-0.085561 1.097339 0.081729
-0.019077 0.914648 -0.102563
-0.122828 1.026113 -0.026657
-0.064784 0.949121 -0.088018
0.074015 1.077181 0.083687
0.032980 0.923364 -0.097809
-0.056638 0.987626 0.090938
-0.097716 0.936291 -0.065539
0.096897 1.059919 0.067417
-0.057567 0.973137 0.089739
-0.079843 0.933806 -0.081031
-0.019294 1.044956 0.097590
0.101132 1.065178 -0.067225
-0.071751 0.994224 -0.082594
0.088925 0.977473 -0.068031
-0.107002 1.029535 0.059921
0.125675 1.032537 0.019562
-0.117880 1.031683 -0.045795
-0.072893 0.953330 0.079884
-0.129087 1.087989 0.030129
-0.055854 0.945148 -0.094596
-0.037692 0.976093 -0.092690
0.131742 0.959126 0.015407
0.014917 1.088414 -0.100858
-0.135163 1.066889 0.004484
-0.123030 1.062704 -0.036215
-0.040997 0.900951 0.099261
-0.116355 1.042169 0.046238
-0.033903 0.946516 -0.091414
0.023788 1.095966 -0.101365
-0.101019 1.004848 0.062593
-0.045819 1.011661 -0.092489
-0.007551 0.976580 0.099993
0.062435 1.007640 -0.086026
-0.100842 1.053251 -0.064663
0.018397 1.012200 -0.093975
-0.128595 1.027735 0.016417
0.016447 0.995278 0.103882
-0.115366 1.044753 0.043261
-0.099045 1.081344 0.064632
-0.068231 0.912076 0.087078
0.029803 0.924283 0.093971
0.007571 1.035732 -0.095636
0.111095 0.974771 0.051421
0.102639 0.955531 -0.066926
0.059704 0.937656 0.087991
0.131664 1.015878 -0.013040
0.129607 0.971955 -0.008618
-0.107114 1.001686 0.058591
0.133659 1.089326 -0.007144
0.089032 1.052250 -0.071192
0.115650 1.057927 0.045593
0.127934 0.927198 -0.031953
0.127426 0.965579 0.028348
0.056016 0.921146 0.094483
-0.117094 1.094447 -0.053007
0.116121 1.038765 0.046646
0.073225 0.907632 0.087459
0.125142 0.994813 -0.029751
0.129366 0.952965 -0.004233
0.037771 1.013814 -0.094705
-0.136240 0.937661 -0.007416
0.109002 0.912405 -0.061872
0.100489 0.962776 0.066677
0.126429 0.958774 -0.032852
-0.076654 1.045210 0.074347
0.082082 0.997602 -0.074061
-0.062426 0.959728 -0.088671
0.125324 1.016590 -0.026816
0.086869 0.915748 -0.076704
0.096658 1.032879 -0.065066
-0.089561 0.928797 -0.075615
0.063072 0.959091 -0.084897
0.004849 0.958409 -0.100089
0.068444 0.990713 0.083092
-0.081155 1.089978 -0.078010
0.078658 0.965190 0.079812
0.090521 0.959175 -0.069904
0.122498 0.935090 0.037395
0.127396 0.977704 -0.009630
-0.107931 0.937010 0.053538
0.063395 0.929371 0.083785
0.121578 1.071387 -0.042960
0.128814 0.914129 0.029517
-0.125817 1.041802 0.017614
0.017375 0.940976 -0.098195
-0.054056 0.904485 0.090274
-0.133084 1.060571 -0.021658
-0.041783 1.039157 -0.096797
0.121863 0.966638 -0.028061
0.106740 0.916014 0.059920
0.069915 0.972825 0.081587
-0.135224 0.931906 -0.005090
-0.118120 1.085923 0.053572
-0.111193 1.005590 0.054393
-0.040530 1.096613 0.096497
-0.122067 0.972939 -0.037974
0.095409 1.015788 -0.064051
0.070705 0.939592 0.088776
0.029499 1.062818 0.097702
-0.066706 0.908659 -0.089153
0.124306 1.038238 0.036748
-0.059610 0.981099 -0.089321
-0.051681 1.014470 0.087797
-0.080649 1.018194 0.074485
-0.107502 1.040769 0.060440
-0.078179 0.939498 0.080163
0.070074 1.004700 -0.080722
0.122798 0.987113 -0.030438
-0.127241 0.957375 -0.029590
-0.112514 1.001089 -0.049872
0.124028 1.091937 0.043883
-0.031675 1.092324 -0.096824
-0.112178 0.954181 -0.046517
0.128993 1.077049 0.032507
0.042387 1.077333 0.098401
0.039133 0.953013 0.094015
0.064163 1.021678 0.086639
-0.072205 1.074004 -0.083898
0.115829 1.005016 -0.042772
0.009890 0.976906 -0.098575
-0.130594 1.034358 0.017145
-0.111539 0.937923 0.057531
-0.102657 0.932907 0.064246
-0.106697 1.065462 -0.059850
-0.087668 0.908571 0.077248
0.017048 1.062515 0.099364
-0.105494 0.957575 -0.061287
-0.100870 0.995081 0.060745
0.130870 1.008962 0.007569
0.132382 1.049009 0.014316
-0.018102 1.080509 0.099694
-0.131724 1.063926 -0.009837
-0.076325 1.017609 0.075400
0.130496 0.968256 0.016611
0.021635 1.006903 0.098574
0.112013 0.904969 0.063511
0.126230 0.951477 -0.030122
-0.047886 0.975473 0.091367
0.130403 0.968178 0.010309
-0.074188 0.921671 -0.084853
0.014845 0.912192 0.097867
-0.120208 0.987325 -0.039143
0.079228 0.916539 0.081941
0.130652 0.959070 -0.011602
0.125420 0.998922 -0.020355
-0.071487 0.940643 -0.080718
-0.036068 0.916652 -0.098034
-0.119842 0.986511 0.044555
0.127442 0.988392 -0.024524
-0.121992 1.083266 0.045987
0.011616 0.925176 0.102365
0.099358 1.024287 0.065461
0.032365 0.966060 0.087500
-0.120495 0.926053 -0.046108
0.005895 0.980484 0.097273
-0.076622 0.985604 -0.080089
-0.097166 0.976324 0.063245
0.100706 1.051222 -0.064339
-0.123533 1.070877 -0.036862
-0.094873 0.930818 -0.069845
-0.122372 0.936951 -0.033924
0.096566 0.984258 -0.063956
0.119426 0.968888 0.035925
0.125016 1.063211 0.040770
-0.041675 1.100591 -0.100401
0.019617 0.932995 -0.102763
-0.121419 1.053487 0.038768
-0.074966 1.022219 0.080076
-0.021185 1.027123 0.096406
0.011165 0.950588 0.097742
0.112789 0.923987 -0.050471
-0.038836 1.010203 0.095625
-0.077148 1.021392 -0.076880
0.030076 1.092775 -0.098780
0.130097 1.035034 0.014685
0.129316 0.990922 0.022611
-0.065407 1.098315 0.089448
-0.044315 0.974757 -0.093829
-0.007794 0.932389 0.097765
0.131033 1.021835 -0.000611
-0.031660 0.953956 0.092917
0.113111 1.088641 0.053542
0.024022 0.987080 0.095476
-0.068376 0.934051 0.085902
0.094426 0.925268 0.069613
-0.033627 1.032293 -0.094789
-0.003231 0.971351 0.096330
-0.067027 0.973825 -0.081986
-0.105549 1.022346 -0.056774
0.106291 0.944948 -0.058993
0.115824 0.932200 0.050706
0.028532 1.030899 0.093558
0.092106 0.899172 -0.076967
0.060281 1.083273 -0.089259
0.049937 0.936808 0.092006
0.103369 0.989478 0.059316
0.082231 0.944103 -0.079812
0.057769 0.943400 0.090591
0.086714 1.068574 -0.073871
0.127184 1.019419 -0.023409
0.025240 0.963145 0.099257
0.068397 0.950007 -0.085847
-0.117534 0.942901 0.048553
0.032604 1.009488 -0.091586
-0.111785 1.047727 0.052038
0.115160 0.953554 0.046456
-0.032837 0.967427 -0.095469
0.075338 1.046688 0.078412
0.119019 1.045563 -0.043480
-0.115722 0.942097 0.051132
0.113659 0.973019 0.049149
0.021914 1.074275 0.098295
0.086028 1.050458 -0.074115
-0.058994 0.937343 0.087270
0.080966 0.979941 -0.076347
0.063430 1.093913 0.091143
-0.125109 1.005844 0.019974
0.097253 1.047592 -0.065591
0.126262 0.921723 0.030277
-0.042890 1.071733 0.093501
0.110474 1.020152 -0.051876
-0.108255 0.933197 -0.058828
-0.027366 0.977449 -0.098608
0.074088 0.918904 -0.084242
-0.131046 1.055807 -0.013453
0.077529 1.051328 -0.082340
-0.083626 0.995947 -0.072006
-0.052119 0.990711 -0.087284
0.072637 0.992621 0.076081
0.125237 0.908154 -0.037819
0.041414 0.974206 -0.092937
-0.005124 0.928725 0.099279
-0.112573 0.940362 -0.048542
-0.096285 1.091891 0.067802
-0.072384 0.954500 -0.085616
0.132579 0.997574 -0.004301
0.129236 1.077120 0.028233
0.125887 0.983132 -0.025343
0.114867 1.004567 0.043207
-0.130817 0.935971 0.025018
-0.131422 0.957346 0.006022
-0.016050 1.003073 0.099092
-0.121426 0.978081 -0.038899
0.074122 0.905129 -0.087842
-0.034487 0.982077 0.092235
0.119917 1.061021 0.040466
-0.091590 0.924656 -0.073853
0.003507 0.901635 -0.099050
0.130229 0.924760 -0.028121
0.069142 1.039826 0.080295
0.109112 1.062090 -0.057579
-0.134900 0.906112 0.012460
0.008237 1.080160 0.101053
0.128057 1.027434 -0.021453
0.010219 1.002655 0.098153
-0.012524 0.953526 -0.099310
0.028847 0.974751 -0.093801
-0.124893 1.089848 0.043395
-0.047906 1.087665 -0.091324
-0.118948 1.025916 -0.041737
0.046490 1.018497 0.091358
0.009294 0.945973 -0.097097
0.123126 1.090986 -0.046710
-0.130601 1.053419 0.006461
0.131852 0.980029 -0.005778
-0.121728 1.060903 0.045288
-0.133335 0.941719 0.012136
-0.058804 0.940865 -0.088467
0.050627 1.057537 0.090969
0.108502 1.015033 -0.056522
0.043206 1.013647 -0.092630
0.090380 1.016309 -0.068585
-0.103109 0.926133 -0.060021
0.095320 0.970000 -0.066407
-0.055881 1.016842 -0.084599
-0.134137 0.952683 -0.006059
0.117999 1.003430 -0.045267
-0.123813 1.008474 0.033329
-0.132477 1.089238 -0.005221
0.065734 0.949791 0.088140
0.124725 0.988469 -0.030843
0.024186 1.094642 0.100740
0.039946 0.935429 0.097264
0.106697 1.055403 0.060932
-0.126135 0.935812 0.029244
-0.023109 1.071456 0.096980
-0.007141 0.998644 -0.095816
-0.050316 1.094842 0.092675
-0.024164 0.933652 -0.099431
0.043889 1.035823 0.092991
0.013742 1.039362 0.094714
0.046818 1.046067 -0.093249
-0.092220 0.923023 0.074791
0.097959 0.960193 0.061356
0.127601 0.971455 -0.023580
0.058533 0.966915 0.089959
0.076527 1.036130 0.081906
-0.083588 0.912111 0.077023
0.110207 1.044946 0.057098
0.075087 1.007346 0.081065
0.075177 0.937726 -0.081020
0.068285 0.945689 0.086668
0.101532 0.920751 0.066884
0.093797 0.989023 -0.068358
-0.122848 1.023124 0.034276
0.069933 1.015560 0.081822
-0.117268 1.091775 -0.050887
0.124874 0.960448 0.022803
-0.114602 1.051067 0.043117
-0.107520 1.049807 -0.048987
0.129736 0.916097 -0.028124
-0.063107 1.086976 0.093342
0.011321 1.085019 -0.102066
0.086603 0.983911 0.073579
-0.119814 0.988837 0.039134
0.027380 1.067690 0.101098
-0.129817 1.001839 0.002721
-0.113245 1.058857 0.047011
0.131674 0.908471 -0.013665
0.116445 0.948805 -0.050132
-0.116932 0.918263 -0.053056
0.061195 0.995546 0.090414
-0.129090 1.071446 -0.035085
0.034305 1.013562 -0.092600
0.126867 1.002320 0.020835
-0.118149 0.974075 0.041628
0.133148 0.915198 0.028793
0.004991 1.053308 0.099709
0.103984 1.016759 0.052729
0.134227 1.086872 -0.021941
0.061113 0.984723 0.086126
0.078351 0.983303 0.078002
0.134936 1.093511 -0.016352
-0.134122 0.930848 -0.007585
0.004939 0.955142 -0.097532
-0.060591 0.998497 0.087416
-0.127521 1.005436 -0.022300
0.128532 1.010205 -0.001632
-0.114574 0.941771 0.052934
-0.129731 1.084518 -0.033038
-0.133663 1.039055 -0.011545
-0.107279 0.952044 0.052492
0.027282 0.959377 -0.098374
-0.134436 1.074344 -0.003674
-0.087853 0.976275 -0.071347
0.054693 1.012114 0.083657
0.086612 0.925486 -0.071016
-0.083756 0.949487 0.070730
-0.127387 0.983089 0.008517
-0.078548 1.032631 0.081947
0.105538 0.955793 -0.063982
0.111619 1.090593 -0.062481
0.023037 0.946009 0.097917
0.002225 1.058661 -0.100314
0.101326 0.971456 0.061030
0.131114 1.068303 0.018031
0.067363 1.084526 -0.084021
0.090330 0.937650 0.077239
0.071595 0.998323 0.077767
-0.104070 0.929102 -0.058693
0.051197 1.041984 -0.090168
0.049779 1.071741 0.092054
0.095964 0.977534 0.065022
0.114962 0.981724 0.050181
0.131043 0.944269 0.016492
0.097816 0.964080 0.064002
0.123398 0.971142 -0.039374
0.113339 0.929662 0.056184
-0.107462 0.959699 -0.058026
0.116541 1.081132 -0.047162
-0.090356 0.966815 -0.070589
0.132362 0.955379 0.019860
-0.108668 0.977524 -0.058339
0.106179 1.095058 -0.059100
-0.056785 1.053622 0.090801
-0.051048 0.940727 0.094982
0.001207 1.054356 0.099337
-0.135304 1.056142 -0.006215
0.009211 1.095329 0.104839
-0.018559 1.080023 -0.099681
-0.084283 0.916898 -0.077936
-0.104646 0.991694 0.055952
-0.023975 1.040063 -0.099024
0.117325 1.093551 0.055386
-0.001062 0.917352 -0.101649
-0.103140 0.978517 -0.056879
-0.083236 0.999246 -0.068525
0.117356 0.987630 0.042173
-0.097586 0.992711 -0.069098
-0.132935 0.976437 0.003715
-0.137813 1.094725 0.007220
-0.059145 1.062872 0.090453
0.129277 1.048350 0.008277
-0.112866 0.984122 0.045878
-0.109102 1.077836 0.061483
-0.119073 0.919010 0.048434
-0.098230 0.929496 -0.066775
-0.042339 1.093642 0.094367
-0.014914 1.014612 0.094392
-0.135709 0.931653 0.001423
-0.111221 1.088935 -0.057708
-0.121596 1.094535 -0.041443
0.101423 1.080022 -0.072960
0.017193 0.945608 -0.097547
0.123546 0.953996 0.030332
-0.119722 0.981881 -0.039298
-0.113766 1.015892 0.049465
-0.090238 1.096359 0.078741
0.128264 1.090992 -0.028201
-0.130744 1.083887 0.025127
-0.026173 0.915738 -0.098352
0.131409 1.053483 -0.021386
0.079679 1.078343 0.081834
0.125572 0.966791 0.033166
-0.053444 0.947415 0.088430
0.124868 1.049744 0.031463
0.101174 0.916442 0.069285
0.135172 1.090190 -0.004842
0.132261 0.933135 -0.024806
-0.047029 0.991742 -0.090365
0.003877 1.099118 -0.101950
0.085399 1.099656 0.080729
-0.107979 1.056263 -0.057776
0.077241 1.068420 0.085226
-0.095421 1.094349 0.069595
-0.076263 1.082402 0.083236
-0.097498 1.027987 -0.065766
0.115590 1.047583 0.046853
0.105334 1.019464 0.059312
-0.095963 1.002607 -0.063361
-0.091117 1.080224 -0.078613
-0.070808 1.049551 0.080592
0.080420 1.073500 0.081786
0.099192 0.919349 -0.067507
0.118640 1.018811 0.031196
-0.026415 0.962688 -0.099427
0.083498 1.001132 0.075322
-0.083905 1.024389 -0.074617
-0.070192 1.070959 -0.085551
0.047361 0.905502 -0.093229
-0.102995 0.932589 0.062161
0.133281 1.089399 0.013766
0.052249 1.093701 -0.095060
-0.128881 0.912714 0.034462
0.073843 0.965405 -0.079524
0.022586 0.902925 -0.101396
-0.130328 1.055607 0.000716
0.132090 1.036410 -0.000921
-0.126439 1.011944 0.022426
-0.043603 1.041047 -0.090818
-0.062379 1.009275 -0.085520
-0.131629 0.948834 -0.014672
-0.114198 1.053969 -0.052210
0.036922 1.060224 -0.090629
-0.120847 1.073382 -0.042844
-0.130565 1.091370 0.031077
-0.070309 1.048183 -0.088523
0.132862 0.911537 0.021767
0.103237 0.904280 0.063797
0.093589 1.051552 0.072365
-0.117154 0.912119 0.046597
0.093533 0.960379 -0.072599
-0.081888 0.927087 -0.081734
0.132944 1.096279 -0.014748
0.126038 0.962452 0.023380
-0.021286 0.915639 -0.103519
-0.048652 1.088178 0.094619
0.133090 1.021533 0.014997
0.060301 0.911540 -0.094816
0.065221 1.067560 0.085017
0.031347 0.932174 0.097223
-0.071485 1.055950 0.083036
0.029567 1.021177 -0.095954
-0.091860 0.936877 -0.069997
-0.010034 1.050134 0.099519
0.063847 0.992795 0.088591
0.099479 1.029040 0.063672
0.076556 1.073552 0.080329
0.088057 0.952492 -0.073678
0.113557 0.978954 -0.045519
0.134526 1.098646 -0.022829
0.066820 1.000162 -0.084254
0.097791 1.013740 -0.065800
0.054746 0.959233 -0.087192
0.125906 0.984724 -0.026662
0.069627 0.997098 -0.078724
-0.127235 0.952830 0.021918
-0.059612 0.943916 0.088292
-0.108829 1.020164 -0.049776
-0.105547 0.938883 -0.064050
-0.113936 1.015940 -0.045188
-0.040623 1.044868 -0.095432
-0.041468 0.940807 -0.092470
0.110436 1.049204 0.049804
-0.029167 0.976907 0.093928
0.106099 1.100712 -0.064812
-0.114888 1.096711 -0.053934
-0.061147 1.058768 0.091293
0.075255 0.972770 -0.076674
0.003392 1.090041 0.104981
-0.117289 1.098507 0.061428
-0.019283 0.991641 0.097863
0.091007 1.025744 -0.071190
-0.020627 0.901543 -0.101226
-0.131732 0.909729 0.024315
0.118597 0.999975 -0.041757
0.119589 1.026478 -0.043827
-0.031265 0.963485 -0.092415
0.105856 0.921569 -0.069718
-0.026253 1.062358 -0.098794
-0.090874 0.982243 -0.075054
-0.115800 1.030637 0.046861
-0.020851 1.030910 0.095497
0.119914 1.012285 0.039404
0.042759 0.936551 -0.094661
0.092384 1.023702 0.069751
-0.108506 0.964180 0.050097
0.013098 1.066263 0.101280
-0.126525 0.939058 0.031444
-0.052733 0.961431 0.086841
0.061781 0.989615 -0.087790
0.127139 1.049886 -0.015171
0.123536 1.042262 -0.032627
-0.090194 0.964257 -0.071769
0.130801 1.000724 -0.010590
-0.109252 0.947806 0.056659
-0.130732 1.053377 -0.015336
-0.006571 0.940312 0.096217
0.104281 1.060348 -0.059102
0.059598 1.086128 0.090342
-0.102659 1.098263 -0.065430
0.042153 1.070123 -0.098986
-0.111441 0.943460 -0.055988
0.116615 0.980652 0.043558
-0.104483 0.918861 -0.061869
0.013752 0.934227 -0.098767
0.050295 0.911724 0.094507
-0.009727 1.024932 -0.098098
0.094951 1.006302 -0.066139
0.131285 1.086632 -0.010459
-0.111426 0.993236 0.052588
0.129213 1.031894 0.016102
-0.114640 0.981267 0.044208
-0.070915 1.068653 -0.088310
0.106960 1.086320 -0.062894
0.118468 0.988549 -0.039723
0.114952 0.917935 -0.051192
-0.073872 0.932661 -0.089766
-0.056207 1.048127 -0.085463
0.132682 0.967171 -0.002364
-0.085875 1.060577 0.073006
0.113224 1.049874 -0.052884
-0.048296 1.037507 -0.091848
-0.131752 1.063909 0.021577
0.104505 1.053422 0.059293
0.003258 1.029572 0.097322
-0.127220 0.902610 -0.036324
0.101743 1.003169 -0.060619
0.110129 1.017443 0.056046
0.076020 1.090851 0.083995
-0.075588 1.031580 -0.083509
-0.033789 1.015891 0.092784
0.064153 1.009738 0.083823
0.059838 0.919929 0.090711
-0.133346 0.987138 0.003834
-0.114968 0.930093 -0.051032
0.109805 0.911383 -0.058174
-0.129115 0.966384 -0.017114
-0.045719 1.030467 -0.090217
0.056419 1.072257 0.092003
-0.031623 1.061981 -0.098160
-0.079230 0.956171 -0.081078
0.027155 0.910819 0.098065
-0.062036 0.981777 -0.085069
0.032883 0.964709 0.092690
-0.111353 0.975391 -0.052585
-0.062509 1.010681 -0.087164
-0.046684 0.905613 -0.097381
0.109574 0.978872 -0.053746
0.122726 1.012605 -0.029012
0.048706 0.987462 -0.090370
0.098355 1.032720 -0.068276
0.132685 0.939495 0.012649
-0.090808 0.931522 0.077778
0.128365 0.962549 0.022219
0.022320 0.919153 0.099862
-0.097218 0.949827 0.069191
0.091415 0.920257 -0.075749
-0.127410 0.980799 -0.010926
-0.075717 1.047367 -0.081680
-0.082910 0.956872 0.072655
-0.113687 0.904509 -0.063297
0.059052 1.014397 -0.087471
-0.043887 1.038877 0.090999
0.120024 0.978482 -0.044339
0.030172 0.959178 0.097887
0.112908 0.998947 -0.049162
0.134526 0.920600 0.017231
-0.124598 1.029052 -0.025586
0.130893 1.049466 -0.010503
-0.104235 1.043917 -0.061858
-0.124174 0.967888 -0.035925
-0.054145 1.070415 -0.093516
-0.034251 1.090714 0.098236
0.126228 0.960269 0.029551
-0.000812 0.950867 0.099455
0.058726 1.036128 0.089016
0.116833 1.044435 -0.044580
0.075533 1.001458 -0.075967
-0.053720 1.087233 0.091886
0.068608 0.930480 -0.085712
0.028493 0.999906 0.093192
0.041052 0.912644 0.095772
0.017865 0.909831 -0.099271
-0.066274 0.910629 0.092080
0.120417 0.997344 0.038840
-0.025818 1.016934 -0.091818
0.135823 0.902615 -0.008414
-0.117056 1.028048 -0.038927
-0.009749 1.001757 0.098929
-0.090571 0.940185 0.073211
-0.081296 0.902524 -0.087173
-0.038754 0.937390 -0.101161
0.097105 1.022560 -0.064618
0.106939 1.033327 -0.050432
0.085549 1.031604 -0.076152
-0.078568 0.933069 -0.080057
-0.125716 1.084578 0.027412
-0.057005 0.981774 -0.092121
-0.066643 1.054957 -0.087858
0.028347 0.932900 0.099806
-0.130830 0.995933 -0.003869
0.033648 1.006210 0.095481
0.104149 1.054111 -0.056560
-0.057129 1.027539 0.084303
0.046781 0.980713 -0.092933
-0.093546 0.960656 0.065798
0.012474 1.093120 -0.103421
0.022528 0.957262 0.097247
0.010903 0.926433 -0.099976
0.054631 0.959120 0.088460
-0.128127 0.966065 0.010184
0.102932 0.927387 0.065420
-0.131230 1.042395 -0.016095
0.053445 1.025106 -0.088054
0.004021 0.963489 -0.096178
0.129286 1.100773 0.032280
-0.129814 1.028797 0.003223
0.075208 1.041791 -0.078704
-0.073915 1.016904 -0.078985
0.119797 1.009647 0.031252
-0.065165 0.904288 0.094186
-0.124194 1.055192 -0.031651
0.063817 1.085488 0.091894
-0.056308 0.920393 -0.084365
-0.088262 1.062725 -0.074816
0.035919 1.005441 0.094646
-0.121133 0.954883 -0.033006
0.047236 1.085873 -0.092078
-0.096979 0.902253 0.074960
0.003371 0.956201 0.097416
-0.040187 1.076749 -0.096596
0.114147 0.999760 0.041942
0.066017 1.024346 -0.085638
0.124873 1.054414 -0.032057
0.132283 0.931332 -0.023156
-0.115120 0.940535 0.040194
-0.097767 1.103515 -0.071494
0.081231 0.946300 -0.074053
0.026023 1.010267 0.094821
0.131430 0.961989 0.015373
-0.098266 1.072699 0.069876
0.099043 1.092516 -0.068833
-0.133698 0.929167 -0.006323
-0.124650 1.020056 -0.017942
-0.050686 1.065705 -0.094738
-0.118431 1.064059 -0.044431
0.123145 0.988088 0.029592
-0.121859 0.944725 -0.034111
-0.080894 0.981302 -0.075390
-0.080600 1.052550 -0.080182
-0.017885 1.098919 -0.103019
-0.130553 1.012370 -0.010533
0.107275 0.938891 -0.059310
-0.133763 0.909111 0.021591
-0.137543 1.086514 -0.011095
0.025603 0.997041 -0.094068
0.064372 1.046131 -0.082500
-0.079272 1.035147 -0.077520
0.091899 1.079540 0.070842
-0.065441 0.953587 0.087446
0.128117 0.990066 0.008355
-0.037048 1.085781 0.097869
-0.115312 1.017252 -0.043601
0.047543 0.916427 -0.096059
-0.116500 0.942963 -0.052687
0.127051 0.950914 0.020879
-0.008781 1.097185 0.102493
-0.115540 0.946250 -0.048636
-0.035619 1.074083 -0.097109
0.093911 0.915587 -0.073553
0.129375 0.934125 -0.017271
0.104899 1.077344 -0.062550
-0.129701 1.082139 0.022040
-0.003715 0.936764 -0.098836
0.008556 0.945876 0.099436
0.121176 1.008897 0.037892
0.127614 0.913007 0.033139
0.006901 1.087334 0.101583
0.128157 0.970326 0.021129
0.075283 1.000008 -0.078297
-0.133383 0.925371 0.007840
0.047290 0.905992 -0.096705
0.120167 0.993941 -0.035862
0.134671 0.927244 -0.005168
0.121797 1.024613 -0.036701
-0.030072 1.056460 -0.098666
-0.127753 0.909884 0.038610
-0.106261 1.021554 -0.057522
0.056795 1.063089 -0.089579
0.107383 0.987206 -0.058057
0.132474 1.094510 -0.026483
-0.015466 0.925203 -0.100190
-0.127318 0.967180 -0.020622
0.130566 0.945131 -0.017374
0.133480 1.098281 -0.027071
-0.129828 0.960943 0.015192
-0.078010 0.975755 -0.076329
0.048083 1.069348 -0.096673
-0.125220 1.085645 0.037445
0.060848 1.088919 -0.088968
0.095349 1.009920 0.065724
-0.130543 1.032453 0.011739
-0.132851 0.967471 0.014346
-0.053890 1.025801 -0.092406
0.098695 0.960857 0.066536
0.102072 1.049313 0.063748
0.104951 0.961463 -0.060732
-0.047229 1.078820 0.097999
-0.063046 0.928338 0.090271
0.019975 1.015325 -0.092748
-0.111818 1.003291 0.049895
0.068544 0.954457 -0.087389
-0.110211 0.905338 0.056667
0.009077 0.930400 -0.102428
-0.136847 1.096022 -0.017889
0.126155 1.089691 -0.046133
-0.061197 0.926786 0.092546
-0.085354 0.974702 0.071348
0.125287 0.997045 -0.012575
-0.009143 0.999905 -0.096416
0.019252 0.961195 -0.092150
-0.037483 1.086193 0.097522
-0.132302 1.081359 -0.021812
-0.052622 0.902768 0.093193
-0.005766 1.032809 0.097386
-0.134002 0.919654 -0.021536
0.130389 1.018477 -0.009249
0.031280 1.075470 0.100869
0.005653 1.027667 0.096484
0.005621 0.994922 0.101004
0.033616 1.093815 -0.097133
-0.130644 1.051335 -0.007142
-0.098635 0.949128 0.064685
0.073040 0.978722 -0.081963
-0.044193 1.052895 0.091989
-0.105686 0.907639 0.070027
0.119228 0.916125 0.045709
0.098716 1.072293 0.070182
0.085091 0.910368 0.077351
-0.073719 1.033996 0.083837
-0.130058 0.965095 -0.015897
0.136946 1.065659 0.003661
0.049701 1.072069 0.094559
0.059915 1.093715 0.090567
-0.001606 0.915300 0.100433
0.064202 0.986777 0.081166
0.041194 1.015410 0.095485
0.137373 1.084502 -0.009125
-0.108252 0.953792 -0.055599
0.011822 0.915180 -0.100456
0.059384 0.940742 -0.094564
-0.064075 1.005369 -0.080115
-0.037062 1.034168 -0.094600
-0.088705 1.036627 -0.070611
-0.080903 0.912577 -0.080648
0.116082 1.051782 -0.040898
0.052204 1.037909 0.087200
-0.022388 0.985953 0.097312
0.106360 1.015301 0.053753
0.070916 1.055261 -0.086783
-0.124340 0.951202 0.029261
0.112926 1.087680 -0.058716
-0.111930 0.925732 0.055129
-0.125574 1.078872 0.036417
-0.123890 1.049204 0.032350
-0.102407 1.033124 -0.067042
0.011782 0.915171 -0.100993
-0.079452 1.085535 0.083051
-0.089811 0.959373 -0.070983
0.035473 1.049279 0.096039
-0.122503 1.080570 -0.033846
-0.122739 0.949655 -0.026120
0.104744 1.082804 -0.065628
0.104309 1.021236 -0.060066
-0.130912 1.031470 0.007945
0.135462 1.082086 0.014726
0.074415 1.008363 -0.076826
0.136278 0.988325 -0.002391
-0.130875 1.027265 0.013793
0.129861 1.013379 0.010412
-0.079339 0.911788 0.080807
-0.084197 0.941249 -0.076701
-0.092873 0.903072 0.076775
0.118761 0.919455 -0.043321
-0.080496 1.050640 -0.075962
-0.084851 0.904998 -0.079007
-0.093584 0.958105 0.071158
0.127823 0.992410 0.024477
-0.008564 1.090763 -0.100226
-0.028140 0.970729 -0.096638
-0.129258 1.057200 -0.018221
-0.112348 0.979572 0.047271
-0.132425 0.922192 -0.026133
-0.006253 0.921240 -0.102583
-0.030124 0.989604 -0.094181
-0.070912 0.911361 -0.084136
0.104730 1.016083 -0.055840
-0.100137 1.000764 -0.061427
0.129517 1.041921 0.010488
-0.093543 0.943701 -0.068988
-0.099409 1.020841 -0.061584
0.121544 0.935583 0.043101
-0.114379 1.044261 0.044007
-0.078360 0.961476 -0.079537
-0.035658 1.020777 -0.093533
0.102792 1.081172 -0.062928
0.073398 0.999544 -0.081275
0.099691 0.940079 0.063685
-0.107278 1.080297 -0.063521
-0.107223 0.970160 -0.058529
-0.040896 1.046238 0.091261
0.055396 0.963738 0.090751
0.040675 0.962082 0.096921
0.059487 1.027073 0.086822
0.045905 0.935483 -0.094131
0.080854 1.071559 0.078088
-0.011353 0.976713 0.095902
0.024014 0.902064 0.102433
-0.031437 0.961465 -0.095982
0.072528 1.061389 0.083024
0.134229 1.074069 0.012146
-0.090987 1.013586 0.069004
-0.045516 0.962611 0.093678
-0.103622 1.003821 0.060390
0.004392 1.065629 -0.102879
0.132729 0.964465 0.009150
0.124884 0.979396 0.021266
-0.002881 1.012991 0.096851
0.103441 1.077181 -0.061164
0.060801 1.017282 0.084723
0.134474 0.943533 -0.003876
0.045587 0.914682 -0.092631
-0.131328 0.920500 0.025220
-0.002545 1.088108 -0.097409
-0.130065 1.066712 -0.011500
-0.120338 1.054511 -0.039609
-0.115908 1.001892 -0.050763
-0.077220 1.034453 -0.076630
0.125815 0.928593 0.035167
-0.096990 1.025905 -0.064717
-0.026608 1.061188 -0.099314
-0.054603 0.911526 0.094068
0.130791 0.957709 -0.012986
0.083784 0.924732 0.075026
0.110259 0.956103 -0.055347
-0.059622 1.057222 -0.087654
-0.065634 0.966393 -0.086764
0.095776 1.037455 -0.067420
0.067667 1.054126 -0.087051
-0.071911 1.066304 0.083489
-0.036246 1.074553 -0.093851
0.122301 1.022590 0.031060
-0.131236 0.959770 0.024578
0.122939 0.930483 -0.037649
-0.021292 1.002157 0.097056
0.127961 0.922100 0.030606
-0.118388 1.082859 -0.046284
-0.081341 0.989150 0.074159
-0.098533 1.076933 0.065694
-0.114005 1.040397 -0.047653
-0.098622 1.073232 -0.067097
-0.125016 1.079531 0.035447
-0.135992 0.914306 -0.004670
0.132189 1.047188 -0.002417
0.130542 0.941980 -0.027094
-0.041993 1.100537 -0.096150
0.069235 1.057626 0.082961
-0.084471 0.903624 0.078959
0.098443 1.086200 -0.064975
-0.115321 0.960521 0.045368
0.122085 0.983579 -0.027556
-0.130360 1.020577 0.008627
0.085547 1.085028 -0.075751
0.132023 1.087198 0.020523
-0.116536 1.014937 0.042766
-0.038906 0.961140 -0.097285
0.086711 0.957862 -0.076824
-0.096337 0.975062 -0.063383
0.061911 0.939038 0.091684
0.100792 1.038814 -0.063445
-0.114703 1.005360 -0.044753
0.106457 1.052020 0.061214
-0.130211 0.919964 0.024553
-0.042202 0.977166 -0.096171
-0.125011 0.948714 0.035482
0.087876 1.004584 -0.066987
-0.113802 0.993528 0.050066
-0.113538 0.995546 -0.049946
0.033593 0.963607 0.096370
-0.132242 1.042940 -0.006038
0.018888 0.997197 0.098713
0.025579 0.944271 0.093941
-0.023959 1.008353 0.094862
0.127252 1.021403 0.023373
0.069395 0.906362 0.089227
-0.120062 0.941089 0.045450
0.088833 0.949769 0.071961
0.086068 0.950646 0.073959
0.129190 0.951201 -0.018913
-0.120497 0.951711 0.041649
-0.109319 0.953248 0.054960
-0.013984 1.073700 0.100816
-0.128736 0.970229 -0.007324
-0.105169 0.970900 -0.055025
-0.114824 0.955296 0.049610
-0.101719 1.093098 0.065311
-0.038121 1.004447 -0.091686
0.125092 1.024747 -0.033130
0.094962 1.051346 -0.069736
0.097707 0.970417 0.068272
-0.080744 1.093964 -0.081831
0.136600 0.928942 0.006481
-0.087230 0.991109 -0.073073
-0.133423 0.932312 0.021735
-0.133552 1.061124 0.005785
-0.113640 0.925088 -0.051549
-0.005957 1.011641 -0.099959
-0.020537 0.925219 -0.104860
0.122700 0.990702 0.024508
-0.011162 0.960145 -0.095934
0.066618 1.078976 -0.087960
0.124405 0.909683 0.040448
-0.057971 1.032153 0.084080
0.033855 1.040476 -0.098680
-0.136786 1.079254 0.002449
-0.046694 1.078013 -0.093365
-0.135434 1.096537 -0.001565
0.131015 0.953177 -0.011622
0.120235 0.955153 -0.035636
-0.024349 0.978811 0.095409
-0.095533 1.005409 0.064596
-0.119568 0.976423 0.039743
0.101032 1.047206 0.062409
-0.118183 0.902332 0.055174
0.020915 0.905424 -0.100447
0.075272 1.044040 -0.081525
0.104765 1.075903 -0.066313
0.133680 1.055074 0.012325
0.031943 0.921932 -0.097350
-0.138237 1.086140 -0.004007
0.033462 1.004070 0.092720
-0.134760 1.049359 0.002992
0.076071 0.943044 -0.081057
-0.119157 1.011939 0.039424
0.130464 0.967229 -0.013205
-0.099944 1.094444 -0.065918
-0.128915 0.993899 0.003601
-0.038105 1.049018 0.094950
0.129787 1.021541 0.005272
-0.103090 0.919478 -0.061754
-0.113260 1.010823 -0.048386
-0.131947 1.006773 -0.009326
-0.130072 1.043056 -0.023163
0.076672 0.965316 -0.086450
-0.055810 1.071058 0.090041
-0.125184 1.024692 -0.030575
-0.056833 0.905062 -0.091378
0.035268 1.043731 0.097055
0.119247 1.084070 -0.042357
-0.009687 1.036513 -0.098253
0.122671 0.979141 0.030882
0.085369 1.021791 -0.074502
0.121801 0.934393 -0.042402
0.037506 1.025511 -0.095975
-0.114205 1.002397 0.041247
0.139639 0.904767 -0.005374
0.093718 0.966800 0.066227
-0.131049 0.941366 -0.022772
0.062588 0.977782 0.085729
-0.120992 0.948272 0.038233
0.121240 1.067615 -0.045932
0.034585 1.043835 -0.093402
0.029151 1.050269 -0.096986
-0.077750 0.967251 0.077739
0.124525 0.905069 -0.040465
-0.092343 0.947413 0.074798
0.129573 1.052893 0.023421
-0.087855 1.021558 -0.076895
-0.084563 1.006788 0.075549
0.076532 0.955635 0.079479
0.123363 0.916906 -0.039769
-0.084655 1.059780 -0.075002
0.127793 0.912109 -0.040768
-0.119020 0.913398 -0.054123
0.125383 0.959996 0.040868
0.130416 1.015192 0.020119
0.110415 1.101969 -0.059287
0.135336 0.918245 0.022026
-0.098509 0.994255 -0.064342
-0.038436 1.023766 0.093422
-0.049394 1.066561 -0.092179
-0.030706 1.039964 0.096915
0.128159 1.064957 0.022812
-0.014192 1.004740 -0.094721
-0.045495 0.989554 0.090846
-0.119885 1.020619 -0.033755
0.016919 1.081035 -0.101156
-0.036728 1.006657 -0.090934
-0.073941 1.025776 0.079275
0.001470 0.967935 -0.101545
0.116283 1.019943 -0.043406
-0.098009 1.026758 -0.063995
-0.038444 1.051819 -0.091262
0.089216 1.017616 -0.072239
0.077120 0.940587 -0.083970
-0.075548 1.018738 0.078448
0.131240 0.961370 -0.007096
0.136002 0.917019 0.016546
0.134097 1.066907 -0.010167
0.004240 0.913962 0.098494
-0.119748 1.026297 0.036315
0.100582 1.098236 -0.068212
0.000343 0.921739 0.102260
0.021745 0.947091 0.099863
-0.079626 1.053241 -0.078337
-0.038391 0.916205 -0.096955
0.133473 1.066863 0.006829
-0.132233 0.899495 0.031666
-0.131976 1.079592 0.007346
-0.018399 0.914883 0.099888
-0.129611 1.083708 -0.029563
0.076468 1.074292 0.082287
-0.057003 1.009188 0.086694
-0.029077 1.056475 -0.094197
0.090779 0.916748 -0.073100
-0.112947 0.929588 -0.051880
0.119197 0.970192 0.040493
-0.057549 1.006905 -0.088823
0.109967 1.069726 -0.056931
-0.130656 1.012756 -0.001689
-0.131179 1.031654 0.001785
0.131868 1.039297 -0.003394
-0.088090 1.075645 -0.079393
0.040026 1.053438 -0.094385
-0.079598 1.093145 -0.081019
0.026066 0.906848 0.097676
-0.028701 0.937055 0.092429
-0.069595 1.084477 -0.085195
-0.124079 1.060714 0.026243
-0.110059 0.956192 0.055838
0.138597 1.096280 0.014440
0.100581 1.077452 -0.068383
0.104675 0.912659 -0.063975
-0.128186 1.063083 0.024827
-0.037087 1.058088 -0.092633
0.060001 0.945516 0.087605
-0.130594 1.037834 -0.007572
-0.129818 1.094315 0.036808
-0.074787 1.034230 -0.083822
-0.131112 1.061235 0.018229
-0.133531 0.919498 0.002541
-0.038411 1.046966 0.095053
0.128666 0.941918 0.032044
0.116142 0.916447 -0.048380
0.134488 1.013271 0.007210
-0.023506 1.048582 0.099971
-0.122833 1.006973 0.027962
-0.057991 1.085355 0.091087
-0.127300 1.041752 -0.032205
-0.132114 0.924178 0.028117
-0.004952 1.086525 0.101666
0.110610 0.931411 0.056679
0.084835 1.053199 0.076876
-0.132875 0.932610 0.008992
0.077575 1.099744 -0.084522
0.105924 0.966639 0.059375
-0.057209 1.001592 -0.086598
0.035679 0.993262 -0.092194
-0.021197 0.921079 0.100083
-0.064373 0.998137 -0.082498
-0.050614 0.931971 -0.093696
-0.035679 1.063823 -0.098150
0.104142 1.093446 -0.063443
-0.107260 1.062949 0.059916
0.006474 0.988024 0.097613
-0.133165 0.897258 -0.027839
0.125977 0.907257 0.039417
-0.068140 1.001548 0.084317
0.097075 1.039001 -0.063588
-0.129178 1.064626 -0.023381
-0.119231 1.019562 0.040939
-0.012180 1.096123 0.102124
0.000554 1.000842 0.097278
0.007437 1.022210 0.097166
0.063737 0.948984 -0.085196
0.130914 0.965504 -0.003469
-0.129251 1.035553 -0.021701
0.115701 1.019405 0.046854
-0.003555 0.977164 -0.095929
0.095555 0.920954 -0.071577
0.120417 0.969252 -0.044730
-0.092407 0.906279 -0.074311
-0.130701 1.015893 -0.006248
-0.094332 0.967630 -0.067463
0.130695 0.977524 0.010794
-0.071690 1.015682 -0.084028
-0.035721 1.017540 -0.095497
-0.020109 1.019180 -0.097272
-0.122189 1.000699 -0.035399
-0.042167 0.998110 -0.088458
-0.084467 1.067123 -0.076247
0.096570 0.994104 0.064445
0.102043 1.007923 -0.058764
-0.096703 1.100795 -0.070896
-0.017504 0.938803 -0.099095
-0.075703 1.046607 0.084782
0.113093 0.994626 -0.047705
-0.134734 1.065247 -0.002772
-0.056349 0.983607 -0.091205
0.125379 0.962312 -0.036883
0.114748 0.940234 -0.049963
-0.083471 1.075254 -0.082483
0.064547 1.043054 0.085323
0.127161 0.917212 -0.031301
0.131734 1.039642 -0.007150
0.108546 0.911923 0.059172
-0.129896 0.937158 0.030291
-0.126422 1.018374 -0.025451
0.111443 0.994158 0.053014
0.047860 1.070779 0.092421
-0.125372 1.023637 -0.026555
0.135509 1.094197 -0.026101
0.132692 1.071776 0.012876
0.110438 0.970484 -0.050183
0.109873 1.063258 -0.060102
0.086057 1.073656 -0.081690
-0.102586 1.093181 0.071058
-0.142660 0.902592 0.003492
-0.110577 1.075154 0.060075
0.127076 0.911839 -0.029067
-0.129199 1.004292 -0.010073
0.117395 0.984200 0.046220
-0.021991 1.083393 0.104334
-0.126677 0.981101 0.023243
0.123067 1.022202 -0.026267
-0.118732 1.036869 -0.039995
-0.046253 0.905221 -0.098190
0.109640 1.023922 0.046824
0.093247 1.003182 -0.072175
-0.125678 1.016887 -0.023800
0.120607 0.917968 -0.051807
-0.128506 0.913814 0.032652
-0.053606 0.934562 -0.091106
-0.132756 1.078150 0.017267
0.079910 0.973524 0.075172
-0.017479 0.987248 0.094492
0.117459 0.980454 0.038880
-0.123278 1.045485 0.036240
-0.077092 0.952690 -0.080587
0.007832 0.912019 0.097309
-0.135256 0.977200 0.006005
-0.127392 1.045921 0.021154
-0.133572 1.083380 -0.020014
0.057319 0.911872 0.090581
-0.128770 1.067331 -0.020730
-0.091417 0.915875 0.075892
-0.029100 0.966620 0.096311
-0.114997 0.905638 -0.052618
0.080533 1.086228 0.082145
0.106140 1.040186 -0.057810
0.121377 0.974744 -0.038963
