ply
format ascii 1.0
comment Generated synthetic body scan — Fashion Tech Week 2
comment Source: parametric body model (chest/waist/hip elliptical cylinders)
comment NOTE: Synthetic data — real iPhone LiDAR pending device provisioning
element vertex 1700
property float x
property float y
property float z
end_header
-0.026630 0.325061 0.059410
-0.063390 0.060151 0.026820
-0.066513 0.077352 -0.012234
-0.043459 0.210154 -0.050338
0.061763 0.196843 0.019933
-0.022479 0.122906 -0.061188
-0.064406 0.129963 -0.016890
-0.028887 0.196153 -0.055324
0.026773 0.264456 -0.058778
0.055509 0.363387 -0.037345
0.004536 0.351705 -0.064887
0.001157 0.056481 -0.064103
0.063638 0.245417 0.004647
-0.028554 0.261628 -0.054174
0.067047 0.038422 -0.017177
0.021234 0.192175 -0.060087
0.012440 0.146836 0.061144
0.060589 0.012672 -0.030186
-0.041556 0.314364 0.054446
0.063915 -0.013945 -0.032382
0.048535 0.345403 0.050816
-0.057061 0.158065 0.030645
0.010903 0.127819 0.058890
-0.039680 0.364286 -0.054312
0.065697 0.212326 0.021882
0.017249 0.185040 -0.063207
0.068071 0.214575 -0.018310
-0.001260 0.083253 0.062776
-0.065498 0.077804 0.020299
0.051892 0.124041 -0.043780
0.060309 0.203199 -0.031487
0.019798 0.006605 0.061910
0.033397 0.272507 -0.055858
0.067984 0.197725 -0.005196
0.009549 0.360903 -0.061855
0.029821 0.176714 -0.055290
0.054488 0.286127 0.039649
-0.002408 0.204586 -0.067010
-0.030849 0.261098 -0.056799
-0.051737 0.370623 -0.047483
0.070429 0.135362 0.011559
0.044307 0.033900 -0.047490
0.042778 0.147308 -0.046474
0.007150 0.354504 -0.063821
-0.066061 0.098405 0.013054
0.061172 0.280130 -0.031141
-0.023385 0.016570 -0.060147
0.048456 0.138605 -0.046577
0.065107 0.234112 0.020503
-0.042018 0.348109 0.055421
0.021621 0.232443 -0.060267
0.052674 0.180467 -0.038512
0.064870 0.136109 0.007951
0.059563 0.216378 0.027514
0.021160 0.271575 -0.057899
-0.059991 0.251263 -0.028373
-0.005396 0.033936 0.070029
0.044881 0.148948 -0.050466
-0.005994 0.308269 -0.066290
0.003149 0.116016 -0.065341
-0.065159 0.219352 0.014081
-0.054382 0.325747 -0.036855
-0.010377 0.176470 -0.063766
0.063618 0.002506 0.025274
0.035955 0.005918 0.056558
-0.030444 0.267872 -0.058876
-0.024753 0.351163 -0.060118
-0.067662 0.013811 0.015063
-0.041981 0.101753 -0.055560
0.048916 0.262278 -0.046874
-0.042339 0.325923 0.049683
0.042424 0.348799 -0.052535
0.008792 0.175856 -0.062608
-0.062599 0.376990 0.030417
-0.019449 0.005810 0.064667
0.022608 0.168662 -0.059625
0.062271 0.180759 -0.024451
0.058626 0.003949 0.036908
0.023416 0.206611 0.061007
-0.016738 0.270814 -0.058469
0.045607 0.090139 0.049434
0.029449 0.128413 0.054446
0.055814 0.326068 0.039642
-0.056636 0.322559 0.033117
0.060226 0.242776 0.029481
-0.069317 0.256555 0.000295
0.020419 0.224519 -0.060925
-0.017675 0.221129 0.059669
0.062378 0.043800 0.031804
-0.019239 0.260484 -0.059636
-0.061394 0.285552 0.029468
0.053125 -0.020970 -0.047863
-0.054026 0.111119 0.036681
-0.058607 0.348240 0.034103
0.066721 0.326970 0.013212
-0.060322 0.332151 -0.031240
-0.034138 0.323101 -0.056044
0.064638 0.266703 -0.015504
0.054738 0.292048 0.034566
0.013449 0.250286 -0.061627
-0.038087 0.210813 0.053790
-0.002061 0.217375 0.064191
-0.052831 0.159139 0.034063
-0.069853 0.178431 -0.004436
0.027552 0.080667 -0.059833
-0.068193 0.203750 -0.011399
-0.013467 0.213416 -0.059163
0.051492 0.172179 0.043931
0.006759 0.340992 -0.067329
0.056777 0.105622 -0.034896
-0.005486 0.210419 -0.062746
-0.002038 0.112292 0.059955
0.008703 0.263200 -0.061772
0.047835 0.013640 0.044080
-0.056856 0.128279 -0.027217
-0.004307 0.247570 0.063345
0.054081 0.367690 -0.043598
-0.027303 0.069097 -0.059428
-0.025753 0.226122 0.059881
0.059231 0.313106 -0.028383
-0.027973 0.248546 -0.055249
0.018748 0.019479 0.064258
0.050234 0.209635 -0.034614
-0.056490 0.045672 -0.041963
0.056528 0.104619 0.030023
0.057119 -0.003176 -0.038022
-0.022752 0.123072 -0.060294
-0.060415 -0.001788 0.030065
0.066279 0.308057 0.009383
0.058632 0.167348 0.028054
0.057875 0.365719 -0.032768
-0.052634 0.084551 -0.036492
-0.052570 0.245236 -0.041462
-0.006021 0.335619 -0.066664
0.027097 0.372049 -0.059898
0.049290 0.268662 -0.043410
0.054945 0.156456 -0.033131
0.025569 0.267947 -0.060090
-0.070132 0.322882 0.007101
0.033127 0.192829 -0.055418
-0.026030 0.224622 0.055629
-0.069467 0.305366 -0.002891
0.063710 0.322035 -0.024014
-0.055548 0.295536 -0.040563
0.066385 0.030159 0.019644
-0.007496 0.044137 -0.064186
-0.059357 0.132151 -0.032506
-0.026192 0.258076 -0.060012
-0.048074 0.124088 0.045651
0.061157 0.174334 -0.028978
-0.050674 0.067337 0.039944
-0.055226 0.163880 -0.036169
-0.068715 0.372916 -0.001067
-0.059589 0.261098 0.032109
-0.019636 -0.002393 -0.062326
-0.033001 0.021148 -0.056370
-0.061578 0.033112 0.021833
-0.020919 0.304476 0.061244
0.040329 0.369739 0.053817
0.051137 0.193825 -0.042276
0.073146 0.349309 0.008974
-0.042332 0.104416 -0.046585
0.031116 0.125155 -0.059306
-0.004244 0.212121 -0.063230
0.064791 0.249924 -0.013447
0.066328 0.122402 -0.005896
0.058462 0.133257 0.034103
0.020005 0.271099 -0.058702
0.026818 0.204951 -0.054682
0.016595 0.319570 0.059448
-0.066495 0.278283 -0.004956
-0.019099 0.347311 -0.060053
0.049801 0.001304 -0.043289
-0.033081 0.000916 0.053722
0.060249 -0.001444 -0.030083
-0.011151 -0.022214 -0.065550
-0.044352 0.234051 0.050794
-0.065785 -0.010082 0.008111
-0.006252 0.319775 -0.063242
-0.059475 0.339458 0.040539
-0.007913 0.206448 -0.063584
-0.056032 0.220141 -0.035805
-0.065320 0.310318 -0.021625
-0.049236 0.107391 -0.042456
-0.035174 0.244750 0.051919
-0.027538 0.208170 -0.056525
-0.047756 0.160633 -0.043789
0.069821 -0.004639 -0.010456
0.065746 0.316943 0.004535
0.053536 -0.014777 -0.038830
0.069952 0.001822 0.011848
-0.020353 0.013546 0.062558
0.042638 0.096231 -0.051160
0.056084 0.302615 0.031461
-0.022346 0.052307 0.057209
0.064368 0.220576 -0.011511
-0.026928 0.060352 -0.058398
-0.006336 0.174561 0.062204
0.003860 0.337064 0.066251
-0.000394 -0.021885 -0.062405
0.037853 0.069160 -0.056563
-0.064458 0.254355 0.006798
0.002416 0.106799 0.066150
-0.063164 0.128407 -0.027468
-0.051330 0.121533 0.043966
0.063233 -0.004500 0.031376
-0.030511 0.354789 0.062067
0.035656 0.113152 -0.053846
-0.067557 0.024465 0.017510
0.005100 0.197458 -0.062599
-0.031071 0.332248 -0.059613
0.070306 0.310315 0.011982
-0.065918 0.126967 0.020683
0.057165 0.254455 0.032058
-0.017101 0.266174 -0.060463
-0.055294 0.017826 0.042902
0.008110 0.365278 -0.063554
-0.063722 0.228026 -0.014950
-0.064192 0.265555 0.008972
-0.033486 0.059414 -0.057817
0.058490 0.208979 -0.023254
-0.054641 0.107937 0.040497
-0.013496 -0.020569 -0.065016
0.032942 0.001807 -0.053790
-0.060213 0.006717 -0.028439
0.064670 0.187669 -0.000930
-0.053959 0.192604 0.033894
-0.069107 -0.014460 -0.003314
-0.040097 0.107402 -0.050436
-0.018672 0.078383 -0.061544
-0.064105 0.103666 -0.006197
-0.003359 0.130020 0.064353
0.029936 0.188263 -0.055674
-0.066661 0.055958 0.016150
0.010703 0.329010 0.067311
0.038719 0.306728 -0.050082
-0.059544 0.097456 -0.035879
0.060600 0.193554 -0.031211
0.038492 0.243419 -0.050174
-0.052900 0.175312 -0.041127
0.041783 0.161451 -0.048175
-0.034922 -0.008051 0.059172
-0.066116 0.247777 0.004711
-0.056097 0.301522 0.034550
-0.012363 0.016867 0.066959
-0.024428 0.373522 -0.059176
-0.051924 0.260250 -0.040287
-0.000379 0.322461 -0.068262
0.042714 0.355161 0.048987
0.063739 0.177271 -0.008645
0.060199 0.323185 0.035033
-0.017993 0.155562 0.059891
-0.063466 0.125680 -0.017204
0.071245 0.340515 0.000902
-0.067129 0.113617 0.009618
0.064463 0.244300 -0.011267
-0.052333 0.155737 0.039665
-0.066850 0.296267 0.006007
-0.041971 0.157342 -0.045464
0.064558 0.346018 -0.021892
-0.067766 0.115150 0.014302
0.047962 0.247748 0.046507
-0.060771 0.344925 0.024002
-0.015900 0.035209 -0.067844
-0.056074 0.297437 0.035105
-0.052380 0.082229 0.036232
0.016630 0.175594 0.060241
-0.014868 0.184655 -0.065149
0.060836 0.179587 0.024413
0.012577 0.109938 -0.062623
0.042970 0.345697 -0.052653
0.038486 0.276209 0.055536
-0.059321 0.053466 -0.034023
-0.066966 0.133477 -0.003252
0.058218 0.200637 -0.025247
-0.058576 0.299548 -0.032995
-0.030386 0.301417 0.056927
0.005915 0.168520 -0.062189
0.043348 0.344455 0.051890
-0.042291 0.045965 -0.052057
0.052871 0.330947 0.046720
0.055891 0.218628 -0.034701
-0.030721 0.339165 0.057763
0.011060 -0.009094 -0.067004
0.044106 0.313220 0.049781
-0.040818 0.355718 0.053098
-0.041799 0.233358 0.049929
-0.024707 0.281505 0.054353
-0.060794 -0.006026 -0.026120
-0.017242 0.205905 -0.060651
-0.025704 0.194508 0.056614
0.070813 0.127040 -0.002718
0.043511 0.052495 -0.045261
0.020300 0.233596 0.059116
-0.057580 0.245434 0.040201
0.002364 0.190551 0.061672
-0.061301 0.132687 0.026738
0.032888 0.048657 0.056669
0.059405 0.266623 -0.027440
-0.023521 0.127516 0.058516
-0.054884 0.166260 -0.032620
0.000672 0.193788 0.062931
0.002274 0.265097 -0.062167
-0.066793 0.195788 0.003101
-0.064831 0.247788 -0.002107
0.006565 0.373377 -0.066639
0.012722 0.169318 0.058568
-0.062472 -0.013078 -0.029499
0.006983 0.094004 -0.064322
0.045646 0.089764 0.044186
-0.058613 0.310514 -0.031550
0.067611 0.111471 -0.003887
-0.065918 0.064398 0.012715
0.064813 0.220063 -0.007576
-0.023073 -0.007600 0.065693
0.043573 0.319379 -0.050496
-0.052401 0.005035 0.041796
0.058375 0.203491 -0.030151
0.028778 0.326091 -0.056566
-0.010108 0.352546 0.064106
-0.063202 0.324901 0.024582
-0.039457 0.151883 0.053124
0.067817 0.081723 -0.003262
0.014748 0.255034 0.063462
0.045811 0.269495 -0.049040
0.060795 0.140912 0.011910
-0.026827 0.352591 0.060381
0.045545 0.216607 0.045778
0.007457 0.070662 0.065264
-0.058814 0.032917 -0.028881
0.065855 0.264441 0.020540
-0.013798 0.140349 -0.064396
0.061686 0.269680 -0.018580
0.055980 0.291463 -0.040408
-0.020902 0.278219 0.062212
0.038991 0.301458 -0.051754
0.048085 -0.002873 -0.047409
0.065898 0.051231 0.023059
0.062853 0.213113 -0.002376
-0.005211 0.374886 -0.064319
0.069646 0.330873 -0.004179
0.023941 0.339292 0.062142
0.059651 0.087401 0.030733
-0.010938 0.083660 -0.065483
0.063531 -0.016324 0.031124
-0.053432 0.201918 0.037258
0.051634 0.021997 -0.038914
-0.063937 0.208939 -0.018068
0.002702 0.017806 -0.064810
0.067482 0.361740 -0.015383
0.064128 0.181303 -0.010425
0.063523 0.066624 -0.017171
-0.053864 0.360169 0.040580
0.069871 0.371248 0.017355
0.069310 -0.017417 -0.000874
0.044391 0.026523 0.054330
-0.064650 0.159828 -0.017864
0.024569 0.317471 0.059947
-0.006130 0.277143 0.061340
-0.039840 0.379007 -0.056835
0.025573 -0.009581 0.062153
0.043839 0.065149 0.045919
0.058268 0.308914 0.034442
0.044238 0.238005 0.047713
-0.055120 0.303251 -0.039508
-0.055679 0.010274 -0.034940
-0.041786 0.222914 -0.052934
0.009790 0.295157 0.066527
0.063769 0.318949 -0.023639
0.049535 0.284026 0.047137
0.055648 -0.015523 0.044569
0.033822 0.028439 0.058184
-0.013256 0.063739 0.060865
0.060171 0.052205 -0.033943
-0.066845 0.079526 -0.009031
0.037371 0.062618 -0.052030
0.065605 0.136498 0.020721
-0.018861 0.273587 0.062693
0.045982 0.047345 -0.043933
0.027271 0.193833 -0.056472
0.050004 0.041610 -0.039752
-0.043879 0.146077 -0.052567
0.008883 0.219682 -0.061540
0.039338 0.331808 0.053099
0.070716 0.327479 0.008277
0.014956 0.018828 0.062343
-0.056980 0.163005 -0.037560
0.045919 0.096509 -0.046408
0.033472 0.047192 -0.055219
0.057664 0.229175 -0.029478
-0.055699 0.089476 0.035453
-0.065169 0.027158 0.001653
0.046703 0.208017 -0.044984
0.006360 0.297149 0.063899
-0.068059 0.292884 0.013525
0.054605 0.356774 0.043651
-0.067219 0.240636 -0.001116
0.050810 0.326255 0.046898
0.017409 0.293142 0.061265
0.011334 0.060196 -0.063795
0.041925 0.148590 -0.052424
-0.004300 0.160099 0.063540
-0.063975 0.166670 0.013873
-0.037867 0.069550 0.050810
-0.013822 0.182690 -0.063413
0.036968 0.133944 -0.053577
0.055415 0.072322 0.036550
-0.040305 0.112836 -0.050425
-0.042291 0.171227 -0.051721
0.004048 0.010366 -0.063398
0.066135 0.071910 0.024650
0.014933 0.026573 -0.061763
0.048670 0.193390 0.047774
0.032131 0.031536 0.059703
-0.007243 0.073431 -0.062191
0.001610 0.045784 -0.064902
-0.068731 0.167192 -0.002964
0.017668 0.168153 0.059127
-0.046827 0.332101 0.049275
-0.062431 0.161933 0.015725
-0.001904 0.312117 -0.061757
-0.064437 0.266309 -0.029565
-0.066347 0.150688 0.011599
-0.048417 -0.020450 -0.041650
0.018908 0.270654 0.059881
-0.040778 0.187693 -0.048669
0.033407 0.264281 -0.059236
0.060287 0.035709 -0.028954
0.066934 0.330380 0.011682
-0.054647 0.298322 0.038927
-0.060793 0.269588 0.035014
0.050596 0.214136 0.040356
-0.011505 0.185425 0.060501
0.067432 0.087223 0.004659
0.052027 0.153851 -0.041470
0.008190 0.116065 -0.062828
0.063406 0.308055 -0.021202
0.057961 0.099603 0.035736
0.058585 0.113549 0.031271
0.029828 0.104534 -0.053790
0.018462 0.098231 -0.059805
0.029924 0.201820 -0.057508
0.057805 0.215586 0.036317
0.064621 0.274230 0.009830
0.049970 0.014154 0.044863
0.068533 0.369778 0.002067
0.010515 0.016445 -0.068039
0.031449 0.201758 -0.056233
-0.059051 0.218854 0.032340
-0.012671 0.308463 -0.063019
-0.036573 0.136833 -0.054841
0.055991 0.373859 0.038751
-0.050751 0.280734 0.040888
0.010783 0.107573 0.060289
-0.052539 0.121680 -0.042336
0.057215 0.164190 0.031788
-0.045453 0.314948 -0.049576
-0.014515 0.241790 -0.061873
0.026999 0.106556 0.057984
0.064498 0.145844 0.016899
0.013438 0.107546 0.061049
0.050129 -0.007260 0.053605
0.001662 0.289041 -0.066652
-0.060808 0.224878 -0.030469
0.054328 0.237943 -0.039925
0.018879 0.296974 -0.062197
0.043636 0.037721 0.047368
-0.041351 0.099739 -0.051076
0.003591 0.185930 0.065588
0.056292 0.200292 0.026507
-0.028331 0.051797 -0.061348
0.063119 0.173050 0.019229
0.050950 0.095971 0.037051
-0.067292 0.002950 -0.011609
-0.018444 0.221614 -0.062484
0.060603 0.230491 0.031782
0.022651 0.133147 -0.055160
-0.068979 0.320159 0.019956
0.044275 0.144953 -0.046862
0.000908 0.241935 0.064739
-0.041683 0.185269 0.051585
-0.019487 0.119027 0.059273
-0.046364 0.043433 -0.047468
-0.048279 0.242643 -0.040395
-0.001739 0.038167 0.063679
0.063925 0.139818 0.004404
-0.013457 0.144328 0.062308
-0.057540 0.031874 0.031488
0.010122 0.365115 -0.068364
-0.067449 0.007251 -0.005391
-0.013856 0.106130 0.062453
-0.064230 0.177456 -0.012317
-0.036872 0.126529 0.053198
-0.052241 0.005200 -0.043817
-0.065993 0.172642 -0.003161
-0.055406 0.145828 0.035738
-0.038945 0.020290 0.051468
-0.005477 -0.018626 0.067122
0.067649 0.030230 -0.019847
-0.030111 0.364225 0.058724
0.032597 0.058102 0.054930
-0.040506 0.146449 -0.050160
-0.060394 -0.012227 -0.031642
-0.065733 0.195015 0.001812
0.052405 0.058307 -0.044281
0.065706 0.129210 -0.024838
-0.057139 0.241137 0.032411
-0.044125 0.184881 0.050109
0.066475 0.191996 0.011116
-0.053661 0.020981 -0.036202
0.022191 -0.003888 -0.065404
-0.064960 0.116748 0.006559
0.043887 0.340333 -0.051437
0.006361 0.048228 -0.063930
0.004647 0.171970 -0.064715
0.068319 0.075139 0.006590
0.012760 0.372352 -0.067132
0.012170 0.056247 0.064346
0.020943 0.135127 0.060875
-0.024329 0.364852 0.063276
0.055663 0.193501 -0.035793
-0.001018 0.176731 -0.063566
-0.047911 0.171157 -0.043343
0.045220 0.370044 0.046433
-0.017762 0.335928 0.064516
0.065193 0.209806 0.016311
-0.035624 0.236054 -0.050314
-0.036488 0.210991 -0.050266
0.054725 0.206408 0.038849
-0.049690 0.149839 0.044576
0.066566 0.155130 -0.008324
-0.032855 0.274009 -0.051829
0.041990 0.151765 0.046452
-0.019432 0.252546 0.063982
-0.027514 0.294311 -0.055440
-0.066994 0.057583 -0.014567
0.070027 0.125172 -0.005232
-0.065702 0.269222 -0.027457
0.066237 0.151566 -0.001122
-0.036613 0.091062 -0.056647
-0.037485 0.211209 -0.053868
-0.006042 0.323709 0.064472
-0.059040 0.246852 0.020616
0.051753 0.200060 -0.038265
0.000357 0.299351 -0.062464
0.052620 0.229682 -0.033562
0.064978 0.224093 0.011292
0.067264 -0.006963 -0.017469
-0.057441 0.322065 0.035508
0.059783 -0.013739 0.033520
-0.066938 0.240304 -0.004298
0.038418 0.160965 -0.053043
0.049803 -0.014276 -0.041330
0.005585 0.029868 -0.063490
-0.061167 0.256007 0.025504
-0.067113 0.196270 -0.012761
-0.068103 0.044751 0.011018
0.024517 0.263335 -0.059662
-0.060780 0.134184 -0.031553
0.070283 0.009510 -0.009927
-0.053555 -0.018152 0.040943
-0.065357 0.165257 -0.010273
0.035235 0.259150 0.052805
0.066369 0.295967 -0.010384
-0.014247 0.110681 0.059174
0.031882 -0.020451 0.060285
-0.035114 0.061448 -0.058851
0.027853 0.202798 0.056333
0.024277 0.101968 -0.057585
0.029208 0.078006 0.060135
0.040848 0.149175 0.047767
-0.035173 0.046587 -0.060567
0.054110 0.221099 -0.035891
0.042813 0.055964 -0.050635
0.062639 0.196295 0.022838
0.062499 0.239356 -0.024593
-0.063138 0.265841 0.001013
0.053268 0.353940 0.044525
-0.012507 0.096835 -0.064839
-0.010386 0.000460 0.066269
0.038691 0.297512 0.055163
-0.045900 0.017031 -0.045241
-0.026820 0.254971 0.057283
0.015294 0.222061 -0.063201
-0.043271 0.326503 0.054303
0.046402 0.094168 0.042656
0.055811 0.315891 0.031900
-0.057085 0.131145 -0.039321
0.064361 -0.022211 0.024982
0.042675 0.005104 0.052154
-0.034398 0.016537 -0.059261
0.046951 0.098463 -0.044973
0.002164 -0.013685 0.066652
-0.046609 0.294883 -0.046287
-0.063316 0.211573 0.026222
0.032488 0.261866 0.055056
0.067408 0.106606 -0.013721
0.059899 -0.012509 -0.037088
-0.023261 0.159158 -0.054999
-0.025966 0.339107 0.061505
0.025997 0.077571 -0.061770
0.043024 0.214248 -0.047075
-0.019617 0.233408 0.057429
0.061736 0.005655 0.034336
0.009391 0.052170 -0.066094
0.056165 0.026459 0.045802
-0.021698 0.237006 0.063196
0.067730 0.083731 0.004950
0.065317 0.211277 0.002844
-0.063835 0.204700 -0.017458
0.013037 0.075028 0.062366
0.060425 0.025704 -0.018963
-0.064489 0.332173 -0.022566
0.064777 0.210988 0.011925
-0.024298 0.066604 0.061583
-0.045762 0.316129 -0.052618
0.016765 0.260896 0.065350
0.010032 0.245202 0.061500
-0.034745 0.022808 0.052325
-0.003106 0.147779 -0.064242
0.066901 0.148574 0.019149
0.034288 0.093502 0.055169
0.061722 0.165522 -0.024383
-0.050804 0.260999 -0.042482
-0.068334 0.360228 0.019275
0.050301 0.166146 -0.037589
0.035093 0.231671 0.053150
0.032874 0.348332 0.060440
0.039485 0.244520 0.052548
0.023324 0.373700 0.063914
-0.026561 -0.002486 0.060800
0.050373 0.139637 0.039350
-0.045510 0.095119 0.049173
-0.062639 0.166494 0.024335
-0.061005 0.241321 0.027316
-0.001136 0.188598 0.063595
0.032097 -0.012994 -0.059089
0.035750 0.104107 0.051862
-0.047865 0.134290 -0.040085
-0.061523 0.171426 -0.030238
0.061962 0.136438 -0.022608
-0.033647 0.184374 0.055660
-0.063634 0.104003 -0.027951
0.044510 0.336433 0.051832
0.051397 0.341435 0.039619
0.029564 0.144577 0.055291
0.031409 0.085270 0.056967
0.060353 0.367066 0.034181
0.020841 0.000355 -0.062717
0.063353 0.119695 -0.021225
0.045626 0.164994 -0.049951
0.062791 0.072827 0.022478
-0.067102 0.069586 0.005925
0.061478 0.098077 -0.026030
-0.032083 -0.023045 0.061785
-0.040755 0.273261 0.049434
-0.063263 0.113836 -0.012236
0.044721 0.094245 0.048540
-0.064555 0.212836 -0.019146
0.040762 0.340920 0.055544
0.012206 0.033429 -0.063691
-0.011019 0.103494 0.061866
-0.046894 0.347118 -0.046211
0.064831 0.361320 -0.016977
0.039352 0.160182 -0.047339
0.057568 0.098759 0.029575
0.035196 0.046578 -0.055837
-0.041803 0.018995 0.051907
0.067466 0.054151 0.008631
-0.020558 0.036510 -0.062283
-0.068137 0.051790 -0.013947
0.053137 0.284459 -0.037139
-0.036385 0.084101 0.056243
-0.008318 0.319382 0.061878
0.031602 0.083678 -0.054634
0.033692 0.305561 0.058800
0.044777 0.271314 -0.045165
0.064898 0.091456 -0.001784
-0.042418 0.371782 0.053459
-0.068450 0.182541 0.001212
-0.042770 0.176821 -0.046552
-0.068748 0.010073 -0.001367
0.001959 0.275897 0.066905
0.067803 0.243513 -0.013711
0.071531 0.331835 0.001870
-0.025102 0.128045 -0.059548
-0.063943 0.185295 0.017466
0.044968 0.233118 0.049022
0.040580 0.013217 0.050667
0.054920 0.344644 0.040447
-0.024932 0.096166 0.059394
0.002981 0.082857 -0.065765
-0.050183 0.046333 -0.045810
-0.023457 0.292116 -0.058484
-0.004254 0.203160 -0.062655
0.041914 0.230953 0.047361
-0.030794 0.110986 0.056142
0.007228 0.306075 -0.062456
-0.064657 0.219933 -0.012898
-0.059289 0.089726 0.024454
-0.067244 0.327658 0.005041
-0.012485 0.128866 -0.064524
-0.047557 0.355019 -0.048597
0.009055 0.245162 -0.063236
0.064565 0.033799 0.015973
0.048372 0.219891 -0.046219
0.040931 0.159968 0.050771
0.052718 0.015916 0.041954
-0.000758 0.037542 0.064394
0.064497 0.181084 -0.020315
-0.062866 0.359541 0.018691
-0.055986 0.142898 0.031799
0.061060 0.136483 0.011814
0.062995 0.024257 0.024811
-0.044211 0.084281 0.050574
-0.033377 0.031770 -0.057728
-0.041064 0.294141 -0.052521
0.069426 0.365505 0.024711
0.065905 0.360395 0.008603
0.067676 0.000214 0.009809
0.058775 0.015179 -0.034116
0.015619 0.308481 -0.066196
0.069922 0.087023 0.020243
-0.024051 0.315487 0.059392
0.067638 0.025788 0.002148
0.042383 0.143078 -0.052306
0.019764 0.214656 -0.062104
-0.012005 0.070356 0.063291
0.029552 0.263028 -0.054584
0.058187 0.123903 0.037039
0.048410 0.145807 0.045311
0.027219 -0.017575 0.060783
-0.001160 0.276497 -0.065749
0.056363 0.312267 -0.033270
0.069374 0.258067 0.010812
-0.054050 0.118942 -0.040890
-0.018513 0.151866 -0.058968
-0.026930 0.270062 -0.057867
-0.055269 0.090360 0.036105
-0.029088 0.219949 0.055821
0.048813 0.195290 -0.038409
-0.028095 0.269289 0.062914
-0.043309 -0.006468 -0.051911
-0.068009 0.238911 0.012507
0.012073 0.020407 -0.062563
0.017538 0.280199 -0.061389
-0.062866 0.287111 0.023801
-0.065035 0.277798 0.005589
0.061956 0.052511 -0.016780
-0.043293 0.263777 -0.051763
-0.040450 0.328678 0.051796
0.021902 0.235440 0.061279
0.062968 0.327293 -0.032483
-0.044693 0.309693 -0.044715
-0.004504 0.167616 -0.063014
0.016223 0.082146 0.061908
-0.058805 -0.021593 0.035535
-0.064680 0.185087 0.018113
0.063928 0.325625 0.029119
-0.001604 0.007176 0.064265
-0.031749 0.233018 0.056424
0.067744 0.286464 -0.004733
0.036752 0.097922 0.056534
0.045856 0.362375 0.051448
0.054755 0.287751 0.037913
0.067242 0.160060 -0.005120
0.069010 0.088319 0.010532
0.042619 0.315603 -0.051505
0.057294 0.333433 0.036362
0.046822 0.103765 0.046463
0.050004 0.290074 -0.041953
0.060798 0.301984 0.025640
0.053050 0.327298 0.039701
0.015361 0.311261 -0.063837
0.061975 0.043881 0.027937
-0.026973 0.243225 -0.058044
0.015123 0.153049 -0.062866
0.056750 0.346125 0.037429
-0.068743 0.284249 -0.005126
-0.016097 -0.012646 -0.064704
0.028985 0.201024 -0.056189
0.044469 0.257548 -0.043960
0.007294 0.147188 0.061828
-0.032802 0.206442 -0.059985
-0.035378 0.029612 0.053708
0.017731 0.064498 0.062552
0.034419 0.207155 -0.056085
0.065423 0.136112 0.008340
0.021661 0.321230 0.062034
-0.024167 0.319577 -0.061955
-0.055948 0.131643 -0.034665
0.012596 0.036465 -0.062613
0.023184 0.080336 -0.059888
0.065352 0.181947 -0.004789
-0.046242 0.154614 0.042029
-0.069415 0.274681 0.001526
-0.059881 0.299533 -0.030367
0.067844 0.285625 0.009841
0.017305 0.212373 0.061088
-0.036172 0.362375 0.057889
0.002367 0.280083 0.066442
-0.032451 0.224916 -0.052579
0.063087 0.130386 -0.010158
0.057016 0.118971 0.036021
-0.017265 0.267541 0.062773
-0.068769 0.046502 -0.012443
-0.069502 0.304521 0.004499
-0.007344 0.235872 0.064355
-0.014209 0.315860 -0.061577
-0.055952 0.345471 -0.036840
0.014276 0.350029 -0.062430
-0.056725 0.375967 0.038438
-0.022321 -0.020597 0.060181
0.058245 0.238158 -0.031333
-0.020985 0.238182 0.061301
0.018639 0.369196 -0.065028
-0.055185 0.122905 -0.031411
-0.049090 0.153305 -0.036002
0.034922 0.321417 -0.051379
-0.017020 -0.015923 -0.063317
-0.006897 0.075862 -0.064685
-0.013174 0.357604 -0.059957
-0.043293 0.146911 -0.045916
-0.065091 0.013989 -0.029834
-0.058379 0.131382 -0.027682
-0.049307 0.372693 -0.046467
-0.018986 0.247039 0.058349
0.040407 0.347450 -0.055967
0.010721 0.205558 -0.060888
-0.015296 0.023170 0.064693
0.001694 -0.016013 -0.064312
-0.011179 0.154939 -0.061212
0.054259 0.362363 -0.045428
-0.041442 0.013786 -0.052196
-0.044769 0.242581 -0.050428
0.032762 0.012656 -0.060680
-0.030193 0.273817 0.053506
0.008688 0.177978 0.061436
0.038179 0.067054 0.052242
0.044740 0.335705 -0.051521
0.026998 0.024131 -0.060701
0.039179 0.154177 0.049279
-0.063201 0.123321 -0.022803
-0.042714 0.073388 0.047902
-0.047326 0.361729 0.049051
-0.023950 0.070498 0.060252
0.000330 0.219559 0.063994
-0.046012 0.233912 0.044310
-0.056105 0.040962 0.036940
0.023347 0.300049 0.060865
-0.005711 0.134650 0.061631
0.067026 0.178915 -0.004479
-0.053965 0.304665 0.039645
0.042633 0.254075 -0.046214
0.019667 0.017698 0.063721
0.018268 0.303111 -0.062771
0.045275 0.004183 -0.050255
-0.005912 0.264765 0.063974
-0.035023 0.078881 0.052734
0.013927 0.170500 -0.065087
-0.015826 0.327307 0.062267
-0.065333 0.196509 -0.007565
0.055547 0.358634 -0.040165
-0.004259 0.330564 0.064990
-0.065000 0.330250 0.008461
0.056050 0.281278 -0.039443
0.036341 0.178003 0.050216
-0.004561 0.303865 -0.065328
-0.054717 0.138974 0.035948
-0.050996 0.354036 0.042685
-0.032791 0.143167 0.054109
-0.042030 0.072668 0.050744
-0.014837 0.180740 -0.061348
0.050435 -0.022961 0.048643
-0.037890 0.233961 0.052375
0.008407 0.253294 0.064050
-0.041595 0.163161 0.048961
-0.067077 -0.001795 0.013352
-0.006485 0.239066 0.065179
-0.026406 0.049566 -0.059347
0.030835 0.229782 0.055891
0.063808 0.165380 0.010818
0.013255 0.202196 -0.059042
0.029163 0.162502 -0.059553
0.059594 0.351731 -0.027075
0.052806 0.369139 0.042486
0.063363 0.061975 -0.026756
-0.043151 0.164229 -0.052700
0.047938 0.093580 0.046508
-0.056054 0.100976 0.038182
-0.034749 -0.005811 -0.055910
-0.048838 0.251175 0.037609
0.010996 -0.004048 -0.063651
0.055337 0.273651 -0.034915
0.068251 0.219569 0.011249
0.046306 0.103506 0.046749
0.004392 0.172916 -0.063567
-0.070392 0.370702 0.001839
-0.046054 0.179084 0.044986
0.051211 0.190594 0.043141
-0.062696 0.355617 -0.030217
-0.050541 0.169384 -0.037092
-0.056380 0.009445 0.034464
0.057086 0.026964 -0.034021
-0.043472 0.227554 0.045876
0.057012 0.113705 -0.038782
-0.037169 0.008655 0.055205
-0.043790 0.301354 -0.050298
-0.036702 0.327918 -0.057663
0.023399 0.002944 0.061293
0.063771 0.128678 0.029866
-0.037862 0.239856 0.050880
0.034649 0.142307 0.056319
-0.037572 0.046875 -0.051654
0.031093 0.128507 0.055918
0.034345 -0.019265 0.058549
0.040359 0.210916 0.046681
0.033229 0.029673 -0.056390
-0.060827 0.352972 -0.030879
0.063178 0.307737 -0.018898
0.061204 0.030505 0.023633
0.055249 0.299464 -0.036654
-0.069168 -0.022634 0.011622
-0.062694 0.080970 0.027177
-0.059349 0.279505 0.031151
0.038352 0.050927 0.056230
-0.030351 0.370931 0.063551
-0.062291 0.082567 -0.031204
0.024892 0.353712 -0.061989
0.068224 0.159095 -0.012964
-0.028663 0.245809 -0.059747
-0.045347 -0.008790 0.049106
-0.063749 -0.022925 0.030201
-0.010863 0.024374 0.063061
0.048244 0.069242 -0.045510
0.068396 0.006430 0.014940
0.067094 0.144841 0.004304
-0.062256 0.154901 0.015894
0.064661 0.156754 0.006660
0.018276 0.090383 0.065219
-0.050505 0.085626 0.042400
-0.029945 0.043436 -0.054247
-0.053114 0.354104 -0.038070
0.066217 0.046634 0.015723
0.036559 0.251368 -0.053495
0.022483 0.037166 0.063894
-0.034351 0.272112 -0.058229
0.045768 0.028835 -0.049354
-0.019155 0.243937 0.062727
0.044425 0.292584 0.048938
-0.022041 0.311302 -0.064441
0.031218 0.079753 0.057187
-0.019740 -0.011563 0.063788
-0.053861 0.150603 -0.038430
-0.050485 0.294313 -0.041672
0.025949 0.247177 0.059444
0.065982 0.140778 -0.000047
-0.061060 0.188166 -0.028979
0.056526 0.317723 -0.036922
0.037591 0.051638 -0.052494
0.019916 0.172727 0.056046
0.013383 0.253176 -0.063382
0.056362 0.318779 0.038532
0.002466 0.295240 0.063880
-0.010982 0.234815 0.064679
0.065724 -0.003754 0.015819
-0.001441 0.071351 -0.062311
-0.003497 -0.017385 0.066614
0.066256 0.338034 0.005740
-0.048022 0.291049 -0.044292
-0.002912 0.249850 0.061951
0.009164 0.136525 -0.061623
-0.044679 0.055638 -0.048186
0.030921 0.307330 0.057421
0.048452 0.075241 -0.044168
-0.001887 0.031664 -0.066532
-0.032687 0.256783 -0.053615
-0.068021 0.357898 -0.000514
0.056260 0.291353 -0.034416
-0.069386 0.224859 0.001861
-0.061551 0.052364 0.032815
-0.054266 0.198945 -0.040329
0.067841 -0.014394 0.016592
0.068746 0.026654 0.004565
0.062152 0.085129 -0.029511
-0.053842 -0.010601 0.049540
-0.053648 0.369070 -0.044136
0.000588 0.149569 0.062907
-0.067297 0.072781 0.002407
-0.057771 0.291952 -0.034748
-0.059038 -0.011016 -0.033844
0.036450 0.076426 -0.052659
0.027934 0.276398 0.057545
0.002266 0.157856 -0.064142
0.045646 -0.014784 0.051368
0.018171 0.290652 -0.061532
0.056329 0.228769 -0.030938
0.031507 0.106525 0.058395
-0.057716 0.149281 0.028172
0.038517 0.260816 -0.051057
0.059330 0.197966 0.030766
-0.052448 0.136965 0.039297
-0.070256 0.054357 0.002542
-0.071098 0.357714 0.016034
-0.068249 0.359847 -0.004750
-0.055408 0.028769 0.042472
0.043557 0.185935 -0.052379
0.060545 0.056331 0.029448
-0.017459 0.301959 -0.064386
-0.067731 0.162908 -0.011405
-0.012108 0.247481 0.065963
0.032701 0.358755 0.060325
0.068494 0.299161 0.010960
0.041288 0.012066 -0.052704
-0.062572 0.042773 -0.030453
-0.003028 0.260994 0.062415
0.056979 0.262506 0.029808
0.063612 0.312138 0.019389
-0.014558 0.063649 -0.065335
0.016432 0.218857 0.061201
-0.055105 0.000613 -0.034004
-0.047769 0.072283 0.041133
-0.056878 0.368395 -0.032648
0.037395 0.306607 -0.054024
-0.051863 0.032979 0.043398
0.030535 -0.021572 0.062479
0.037934 -0.013296 -0.052310
0.064605 0.327345 0.023915
0.068166 0.309950 -0.019230
0.020150 -0.010825 0.063584
0.063942 0.287460 -0.014240
0.036471 0.307449 0.049613
0.058829 0.106569 -0.032321
-0.067292 0.357665 0.020126
-0.009743 0.075104 -0.066252
-0.069440 0.310474 -0.001200
0.065960 0.176236 0.011435
-0.005932 0.092827 -0.062873
-0.070022 0.056973 0.015778
0.036117 -0.003714 0.057369
0.036004 0.010497 0.054353
0.063670 0.300476 -0.001412
0.019241 0.280864 0.059821
-0.023347 0.068231 0.060423
-0.053486 0.240324 -0.029690
-0.061410 0.106785 0.026608
-0.065114 0.109977 -0.004850
-0.047113 0.304289 0.044175
-0.051544 0.346034 0.046708
-0.017858 0.050436 -0.062262
-0.028315 0.007656 0.061294
-0.055301 0.074704 -0.040535
-0.050024 0.252839 -0.041985
-0.060330 0.274375 -0.025158
-0.066161 0.120667 -0.017062
-0.035797 0.311833 0.053870
0.066274 0.288224 -0.008812
-0.067108 0.169178 0.003567
-0.045264 0.146673 0.044319
0.034811 0.045344 0.059491
-0.057098 0.327613 0.035733
0.051295 0.072950 0.043753
0.030686 0.303081 0.055318
0.068071 0.348623 -0.011741
0.065113 0.355227 0.027794
-0.056938 0.125026 0.035323
-0.011308 0.139442 -0.062883
0.052951 0.245415 -0.042290
0.050785 0.358300 -0.042273
0.020985 0.219140 -0.060760
-0.020470 0.202486 -0.057653
0.020116 0.065071 -0.056897
-0.045226 0.191793 -0.047468
-0.056108 0.249106 -0.035389
-0.025822 0.321448 0.058000
-0.062174 0.067425 0.029273
0.052711 -0.023369 0.039934
-0.068462 0.143771 -0.010512
-0.003907 0.012164 0.068909
-0.016293 0.200503 -0.063283
0.062524 0.075397 -0.023023
0.037894 0.218061 -0.049052
-0.064454 0.014192 0.008911
-0.053644 0.243792 0.033174
0.009086 0.336601 0.061617
-0.043536 0.237749 0.050824
-0.055250 0.135502 0.035455
-0.064962 0.335821 -0.021001
0.069063 -0.009473 -0.017928
0.065971 0.376297 0.026479
0.048967 0.120403 -0.042557
-0.042898 0.374253 -0.054623
0.008308 0.020886 -0.063488
-0.066097 -0.012766 0.012183
-0.067274 0.356779 -0.019618
-0.055712 0.098539 -0.034285
-0.070843 0.373698 0.008348
0.032062 0.031834 -0.054049
-0.024180 0.261175 0.059477
-0.065068 0.050188 -0.019358
0.003439 0.014587 0.067474
0.052251 -0.002679 -0.045786
0.002641 0.058106 0.062561
0.002320 0.099602 -0.066675
0.036947 0.283262 -0.054045
0.004186 0.363363 -0.064817
-0.056776 0.018370 0.039918
0.024671 0.015463 -0.063081
-0.052320 0.134021 -0.038843
0.067692 0.214110 -0.005385
0.065672 0.060301 0.011155
-0.068890 0.121893 0.001797
0.006160 0.018456 -0.059727
-0.065205 0.256690 0.012445
0.065898 0.077081 -0.012688
0.036434 0.126617 0.052494
-0.011641 0.257869 -0.062562
0.000604 0.070496 -0.064005
0.060463 0.167673 0.016845
-0.042645 0.272800 0.050425
-0.048227 0.041662 0.048218
0.006739 0.158925 -0.058995
-0.038867 -0.018683 -0.054658
0.060479 0.279399 -0.036546
0.067434 0.045066 0.019282
0.031157 0.191601 -0.057129
0.066694 0.259305 0.015177
-0.019011 0.211494 -0.061102
0.051130 0.029188 -0.039300
0.037190 0.361910 -0.055817
-0.065207 0.259906 -0.016025
0.064888 0.072755 -0.009777
0.005816 0.108055 0.064070
0.007400 0.069811 -0.063587
0.053509 0.071586 -0.043935
-0.010355 0.126685 -0.061815
-0.009648 -0.017593 -0.064921
0.005354 0.086463 0.061605
-0.063365 0.236187 -0.021532
-0.013120 0.308302 -0.062147
-0.052267 0.232963 0.039343
0.048796 0.126728 0.045630
0.025709 0.083989 0.055469
0.058485 0.363243 -0.033497
0.055138 0.231101 0.040349
0.070136 -0.002044 0.005655
-0.059638 0.101355 0.030408
-0.061799 0.062925 0.021118
-0.028371 0.341622 0.059143
0.051548 0.076150 0.044777
0.066955 0.024087 0.018265
-0.027374 0.159164 -0.058627
0.026303 0.037711 0.056982
-0.018044 0.163119 -0.063682
-0.063438 0.303687 -0.025142
0.060113 0.229166 -0.030963
-0.007417 0.202534 0.064279
0.032310 -0.006945 -0.058083
0.021184 0.209465 0.059909
-0.017224 0.058510 -0.065011
-0.023423 -0.000042 -0.062824
0.051467 0.194949 -0.041445
0.056161 0.341264 -0.039517
0.008864 0.015098 0.068946
-0.003257 0.224192 0.063751
0.028771 0.255493 -0.058065
0.036828 0.165128 0.052566
-0.023847 0.295915 -0.057955
-0.058772 0.362733 -0.037080
-0.051178 0.167859 -0.043438
-0.062478 0.005241 -0.023961
-0.063908 0.303810 -0.027020
0.028708 -0.014340 -0.061750
0.045046 0.080940 -0.045014
-0.056506 0.338175 -0.037111
0.063704 0.220619 -0.013424
0.063652 0.175726 -0.029974
-0.066359 0.180550 0.002833
-0.061409 0.094117 0.014100
0.047519 0.112078 -0.043373
-0.058533 0.280493 0.028725
0.066066 0.316526 0.019858
0.068460 0.148351 -0.007828
0.057365 0.225739 -0.028432
-0.027657 0.364785 0.061063
0.046505 0.053949 0.051346
-0.039836 0.240164 0.051571
-0.011873 0.330483 -0.062387
-0.066377 0.029412 0.001748
-0.062158 0.031479 -0.021405
-0.068100 0.281498 0.003586
0.062678 0.192693 0.023159
0.058295 0.050117 -0.036029
0.062389 0.090290 0.024730
0.071160 0.259521 0.001075
0.061242 0.158404 0.023912
0.063100 0.246094 -0.018074
-0.064869 0.372513 0.016398
0.055286 0.158943 0.034944
-0.047248 0.221512 0.042446
0.046347 0.078700 0.046001
0.048604 0.245795 -0.040381
0.004397 0.148951 0.064256
-0.000514 0.252276 -0.064178
0.053737 0.048820 -0.042442
0.030810 0.218623 0.054555
0.022816 0.055693 0.060071
-0.030461 -0.012684 -0.056879
0.052646 0.137021 0.038972
0.009302 0.024345 -0.064825
-0.023761 0.034223 -0.057077
-0.048089 0.075031 0.048280
-0.058865 0.266976 0.026433
-0.066162 0.199765 0.003980
-0.034414 0.046036 0.055840
0.067869 0.023310 0.012814
-0.067184 0.225260 0.024977
0.054476 0.223428 0.034521
-0.064715 0.126568 -0.021606
0.044186 0.338578 -0.044080
-0.031086 0.298174 -0.053098
0.062348 0.312524 -0.028317
-0.046683 0.208908 -0.049158
0.061918 0.258123 0.022774
0.069181 0.220023 0.006642
0.040703 0.066761 0.050812
0.047942 0.066026 -0.040155
-0.004342 0.011304 -0.064505
-0.060039 0.188278 -0.016039
0.011011 0.205339 0.062133
0.043528 0.374483 0.051636
0.061185 0.374869 -0.024752
-0.037191 0.051408 0.054363
0.066048 0.120830 -0.007959
0.023927 0.334783 0.060597
-0.064072 0.288489 0.009593
0.011597 0.059603 0.064655
-0.016367 0.336007 0.064086
0.029957 0.033227 0.056475
0.063247 0.145783 0.010427
-0.063016 0.037407 -0.027003
-0.050621 0.236194 -0.044036
0.048009 0.051262 -0.044119
0.051629 0.002120 0.044242
-0.051369 0.165764 -0.045130
0.007727 0.122762 0.064532
-0.019362 0.220950 -0.057478
-0.022529 0.236121 -0.062226
0.066710 0.264061 -0.002203
0.063810 0.097382 0.018161
-0.043236 0.290311 0.044916
-0.006892 0.292749 0.064744
0.066855 0.344035 0.015359
0.055057 0.309136 0.041720
-0.012082 0.247614 -0.060181
-0.035422 0.287792 0.054399
0.071593 0.355148 0.013562
0.018607 0.251572 -0.064268
-0.057453 0.215551 0.030391
0.066088 0.177141 -0.014994
0.068122 0.242942 0.004146
0.016558 0.213688 -0.058526
-0.064583 0.257900 0.019333
-0.060616 -0.018283 0.032760
0.036347 0.313288 -0.057724
-0.018004 0.321783 0.064179
-0.063520 0.018076 0.029421
-0.032460 0.116623 0.058864
0.029768 0.124610 0.058751
0.063777 0.364593 -0.021875
0.031216 0.323966 0.057334
-0.036447 0.013413 -0.053250
-0.050734 0.042901 -0.044282
-0.063732 0.137403 0.016713
-0.049196 0.091012 0.041122
-0.035271 0.164199 0.052468
0.061682 0.145348 0.022840
0.056530 0.354004 -0.040901
-0.014246 0.184470 -0.061423
-0.025826 0.126981 0.056548
0.028264 0.234526 0.056537
-0.023841 0.183776 0.062882
0.052868 0.307843 -0.042657
-0.037662 -0.009781 -0.050732
0.070397 0.116781 0.014200
-0.070489 0.197664 -0.002116
0.065119 0.077050 -0.020102
-0.067137 0.354846 -0.005133
-0.024372 0.177970 -0.063935
-0.052174 0.150294 0.035014
-0.008626 0.024304 -0.068031
0.024598 -0.018817 0.058393
-0.053343 0.219974 0.041948
0.014288 -0.008120 -0.063512
-0.022590 0.333442 -0.061579
-0.075580 -0.019155 -0.003610
-0.050389 0.378614 0.049184
-0.063525 0.055005 -0.022436
0.054286 0.240749 -0.038372
0.058773 0.126234 -0.026146
-0.003699 0.064382 -0.065531
0.043276 0.213341 -0.045059
-0.036494 0.095703 -0.056184
0.045018 0.111970 0.048663
0.064701 0.131322 0.003441
-0.014819 0.246770 -0.061465
-0.032085 0.001664 -0.059797
-0.040140 0.263165 0.051407
-0.018996 0.055836 -0.060112
0.068810 0.367459 -0.019215
0.071184 -0.016970 -0.001880
-0.029317 0.226862 0.056200
-0.049050 0.035397 -0.045135
0.020421 0.111127 -0.057829
0.044571 -0.000974 -0.051509
0.062281 0.245965 0.024183
-0.053861 -0.000082 -0.042982
0.065441 0.357181 0.011225
0.071777 0.283650 -0.008608
-0.043509 0.289867 0.048919
0.022164 0.316162 0.062317
-0.027984 0.319720 -0.057506
0.032248 -0.007928 -0.058203
-0.017616 0.292398 -0.064924
0.065934 0.097386 -0.000439
0.066980 0.246455 -0.010025
-0.017820 0.187385 -0.058080
-0.060201 0.302044 -0.026270
0.041492 0.276303 -0.054383
0.066754 0.287760 0.007372
-0.039151 0.194274 0.054370
-0.004034 0.224040 -0.063132
0.004013 0.104766 0.061049
0.067707 0.135768 0.014479
0.037832 0.256886 0.050017
-0.063315 0.218727 -0.021544
-0.065413 0.117735 0.013449
0.014317 0.161338 -0.061172
0.060612 0.236127 -0.018305
-0.059203 0.096515 -0.027829
0.055647 0.027570 0.033413
0.032561 0.121849 0.054933
-0.046680 0.254932 -0.046467
0.051990 0.306929 0.041051
-0.069473 0.365185 0.007813
0.064525 0.369751 -0.026540
-0.024540 0.031864 0.060460
-0.062370 0.128786 0.013464
0.025130 0.049017 -0.058707
-0.058169 0.213080 0.036631
0.015297 0.173096 0.060559
0.058389 0.341918 -0.032403
-0.008254 0.134660 0.062081
0.055228 -0.006671 -0.039616
-0.064143 0.059211 0.021854
0.019986 0.320319 0.065695
-0.018745 0.217771 0.062102
0.017841 0.303959 0.063764
0.056002 0.328505 -0.040955
0.066314 0.269852 0.003665
0.017777 0.350912 -0.065672
0.064578 0.108988 -0.006481
-0.067681 0.353650 0.016113
-0.003118 0.172502 0.066325
-0.063507 0.242370 -0.012876
-0.064443 0.144088 -0.015713
0.066718 0.365849 0.004052
-0.067929 0.169600 -0.002103
0.053330 0.050553 -0.041587
-0.052905 0.234547 -0.034280
0.044249 0.092178 0.044450
-0.063890 0.039098 0.020289
-0.003742 0.218463 0.061011
0.057631 0.353332 0.035741
0.055121 0.104887 0.033912
-0.052003 0.314280 0.045836
-0.062294 0.193841 0.024245
0.011903 0.144784 0.063266
-0.038955 0.319479 0.054393
-0.071291 0.379914 -0.009170
0.067882 0.120062 -0.012993
0.054589 0.221239 0.037563
0.009759 0.040821 0.061525
0.068754 0.335510 -0.005912
-0.064999 0.237962 -0.005786
-0.012828 0.363000 0.061533
0.050989 0.233501 0.043140
0.063328 0.058238 -0.034512
-0.063311 0.183036 0.013316
-0.063755 0.267794 0.023046
0.043217 0.095164 0.047835
0.048840 0.192389 0.043685
-0.045503 0.231930 0.043920
0.056586 0.263225 0.033735
0.047730 0.248878 -0.040442
0.042108 0.327953 0.051322
-0.018847 0.244381 0.062602
-0.064905 0.117515 0.005516
-0.064387 0.333175 0.014624
0.030778 0.048475 -0.058299
0.040199 0.023930 -0.055247
0.062684 0.252143 0.016891
-0.017531 0.111394 -0.062251
-0.068768 -0.006205 -0.020088
-0.017647 0.136540 -0.062634
0.050064 0.015981 -0.040796
-0.061345 0.000076 -0.029442
0.064431 0.015558 0.008392
-0.019127 0.370843 -0.062256
-0.010628 0.103741 0.060932
0.064142 0.261630 -0.024497
-0.061635 0.304824 -0.028868
0.061410 0.177510 0.021331
-0.027880 0.114339 -0.057324
0.008781 0.214864 -0.063361
0.001621 0.040773 0.067659
-0.065231 0.120386 0.010556
-0.038437 0.159671 -0.053972
0.063765 0.199301 0.021296
0.053553 0.279169 -0.037441
-0.062488 0.232884 0.020658
-0.041492 0.001716 -0.050950
0.062795 0.061739 0.029293
0.068684 0.306922 -0.006019
-0.044572 0.201856 -0.049035
-0.065853 0.195389 0.015646
0.064384 0.017088 0.024291
-0.023394 -0.019522 -0.061911
-0.008295 0.058127 -0.064330
0.056920 0.174063 -0.037775
-0.072513 0.001130 0.001611
-0.067549 0.192919 0.006458
0.067673 0.264770 0.005543
0.070239 0.255032 0.001467
-0.010528 0.166717 0.061262
0.013477 0.180047 -0.062263
-0.053848 0.152850 -0.036860
0.008589 0.351314 0.065899
-0.050498 0.171976 -0.039549
-0.065949 0.185388 0.013595
-0.010559 0.050219 -0.067158
-0.013617 0.024240 -0.063915
-0.058073 -0.008197 0.041222
-0.026629 0.259632 0.058480
-0.028355 0.136947 -0.061430
-0.041910 0.002923 0.057412
0.070378 0.259557 -0.009343
-0.027827 0.104615 0.054460
0.050863 0.318854 -0.045023
0.031385 0.152236 0.054944
-0.053318 0.330232 -0.046182
0.066088 0.066388 0.003178
0.018464 0.076974 0.061131
-0.022339 0.054155 -0.060169
-0.057030 0.112705 0.033891
-0.064877 0.212301 -0.018245
-0.001394 0.067901 -0.058813
-0.049522 0.055428 0.037530
-0.065419 0.138826 0.013016
0.012612 0.019480 0.067644
-0.067422 0.078918 0.003193
0.056270 0.008478 -0.037905
0.018451 -0.014801 -0.062646
0.051081 0.322601 -0.045354
0.008667 0.134203 0.062590
0.010703 0.188920 -0.064450
0.040749 0.086421 0.047209
-0.064570 0.192181 0.021077
-0.058334 0.033065 0.033947
0.065301 0.168918 0.009265
-0.021392 0.091431 -0.059784
0.003360 0.315627 -0.063177
-0.001293 -0.018426 0.066061
0.026676 0.284630 -0.060529
0.066048 0.100780 0.012332
-0.020811 0.026437 0.061736
0.011518 0.056367 -0.064849
0.017885 0.174723 0.061692
0.061416 0.265933 -0.019383
0.008690 0.357837 -0.065092
-0.049283 0.233722 -0.048194
-0.000700 0.098581 -0.060140
-0.039372 0.058864 0.050596
0.060756 0.027672 0.027580
0.062626 0.257820 -0.020783
0.063408 0.230967 -0.018301
-0.068239 -0.012106 0.011322
-0.030827 0.116212 -0.059056
0.034147 0.215247 0.058797
0.067715 0.286674 -0.010376
0.027189 0.177788 0.057328
-0.026370 0.146797 -0.058537
0.065147 0.060873 0.009986
-0.049888 0.010053 0.045581
0.063930 0.369200 -0.030901
-0.061856 0.078520 0.031711
0.057170 -0.013539 0.038899
0.060660 0.339836 0.034282
0.064373 0.239041 0.015988
0.058736 0.268066 -0.030978
0.010933 0.043995 -0.067315
-0.017043 0.044679 0.058674
0.055215 0.208032 -0.030494
-0.018487 0.002054 -0.067448
0.059082 0.258247 -0.032519
0.004686 0.137688 -0.063852
0.057528 0.243811 0.030296
0.049843 0.232378 0.041754
0.016040 0.107204 -0.060056
-0.042578 0.189067 0.048964
0.060734 0.102499 0.032065
0.066717 0.334860 0.007317
-0.058585 0.080741 0.037587
0.063502 0.013039 -0.025741
-0.062575 0.312071 0.030821
-0.020128 0.074780 -0.062638
-0.011318 0.051559 -0.065552
0.065818 0.365071 0.001767
0.065381 0.316031 -0.002823
-0.058718 0.193448 0.034729
-0.065704 0.367754 0.011057
0.059925 0.374337 -0.037042
-0.023505 0.362003 0.063566
-0.024008 0.183236 0.058714
0.040642 0.325179 0.052724
0.068916 0.266931 0.009470
-0.070051 0.359115 -0.008548
0.005700 0.049215 -0.060656
0.024380 0.293687 -0.058299
0.014093 0.130937 0.060989
0.058369 0.183652 -0.029905
-0.042529 0.233517 0.049146
0.044427 0.125332 -0.047726
-0.008571 0.043328 0.062194
0.062808 0.206452 0.029946
-0.056290 0.009355 0.036319
-0.029005 0.250047 0.057100
0.019070 0.180701 0.058458
-0.013788 0.035829 0.062763
-0.066767 0.355872 -0.002627
-0.014019 0.224131 -0.061590
0.037376 0.108454 -0.057899
-0.065556 0.266576 -0.018085
0.058452 0.164333 0.034018
-0.013414 0.330678 0.066099
-0.059745 0.260128 -0.023996
-0.038271 0.176718 -0.054651
-0.028289 0.007269 -0.061313
-0.060761 0.328460 0.030230
-0.063149 0.105649 -0.022521
-0.064430 0.233023 0.002977
-0.053444 0.330925 0.045906
-0.065383 0.091116 -0.004462
-0.051232 0.048927 -0.041407
-0.061251 0.055153 0.028996
-0.036873 0.154461 0.050133
0.038848 0.303328 0.049207
0.037821 0.128692 0.054274
0.053072 0.000650 -0.040550
-0.029752 0.016405 0.057867
-0.064236 0.273172 0.024854
-0.018890 0.344547 -0.063485
0.062964 0.234293 0.023546
-0.051122 0.010087 -0.045157
-0.010761 0.077534 0.066095
0.058631 0.181243 -0.030871
0.066562 0.354498 0.006105
0.066212 0.195216 -0.006406
0.061736 0.338396 -0.035014
-0.054568 0.010489 -0.045512
-0.070642 0.322250 -0.004536
-0.068919 0.285354 -0.011358
0.050932 0.248870 -0.041908
-0.021513 0.325663 -0.062532
0.045308 0.312561 0.046156
-0.049259 0.295103 0.046593
-0.064598 0.186640 -0.002323
0.050909 0.363696 -0.046299
0.042794 0.059554 -0.047302
0.013501 0.144467 0.060558
0.042957 0.085930 -0.050049
-0.026821 0.079614 0.062619
0.015018 0.096085 -0.060375
0.068886 0.269555 -0.002696
-0.042770 0.050337 0.046488
0.065435 0.062499 -0.005427
0.031310 0.195892 -0.059797
0.038252 0.279807 0.054392
-0.021694 0.074894 0.058908
-0.065846 0.186625 -0.004976
0.067279 0.149018 0.007476
-0.053028 0.256642 0.042845
-0.013665 0.324635 0.063367
0.045996 0.226858 -0.046298
-0.047375 0.087847 0.046973
0.069715 0.026843 -0.011079
0.049277 0.145342 -0.044886
-0.045894 0.348722 -0.050939
0.044679 0.029130 0.046143
-0.044489 0.063282 0.047666
-0.060108 0.099963 0.029249
0.065135 0.152694 0.005606
-0.041059 0.323494 0.051749
-0.054508 0.101559 0.039412
0.058477 0.023940 0.036132
-0.007103 0.094804 -0.062926
0.031184 0.297392 0.056761
0.008382 0.100104 0.064318
-0.068282 0.186467 0.002267
-0.062637 0.129923 -0.017932
-0.034261 0.141549 0.054681
-0.034894 0.029834 -0.055665
-0.062374 0.346431 -0.023118
-0.046593 0.334722 0.045340
0.056866 0.345811 -0.037691
-0.002775 0.205072 0.063121
-0.063714 0.360233 0.019785
-0.027043 0.241459 0.059630
0.057325 0.049386 0.037650
0.063677 0.250185 0.008416
-0.015527 0.302354 -0.061921
0.052319 0.257701 0.037105
0.011255 -0.019124 -0.062298
-0.041460 0.070978 -0.051078
0.031837 0.023568 0.061211
0.059657 0.120432 -0.025659
0.053892 0.048425 0.038981
-0.043711 0.170475 0.046009
-0.048500 0.298536 0.046017
0.015985 0.074322 0.062208
-0.058629 0.317777 -0.032542
0.012046 0.275877 0.062273
-0.063666 0.259975 -0.018778
0.048420 0.228299 0.041963
-0.042687 0.260057 0.045666
-0.001488 -0.012303 -0.068362
-0.067588 -0.017398 -0.006457
-0.062578 0.053923 -0.032926
-0.061107 0.123913 -0.026694
0.023597 0.191007 0.058227
0.067529 0.370214 -0.023450
0.045783 0.368901 0.046900
0.049768 0.343301 0.043986
-0.059429 0.129890 0.015713
-0.068676 0.323078 -0.016178
-0.008578 0.037569 -0.064666
-0.015135 0.050078 -0.063667
0.065756 0.183775 -0.010160
-0.063784 0.183843 0.007648
-0.034332 0.149464 -0.053273
-0.065170 -0.002224 -0.013240
0.062899 0.043660 0.019231
0.057082 0.102245 -0.033030
-0.055825 0.089983 -0.038451
-0.049353 0.059059 0.045715
-0.020439 0.348964 0.063546
-0.051488 -0.016117 0.044369
0.008408 0.324598 -0.064740
0.069990 0.266936 -0.001828
-0.060884 0.021718 -0.035024
0.047971 0.036210 -0.048701
-0.057899 0.116214 -0.033191
0.009260 0.096718 0.061363
-0.068418 0.154391 -0.007041
-0.009185 0.062853 0.060523
0.054924 0.303214 -0.041832
0.066211 -0.018739 -0.021515
0.040886 0.008056 0.052049
0.050292 0.147679 0.042890
-0.068033 0.358733 -0.022256
0.010812 0.015379 0.064106
-0.064993 0.335067 0.026856
-0.009974 0.233302 -0.066999
-0.032319 0.101336 0.057460
-0.028532 0.178439 -0.065150
0.065447 0.133527 -0.016856
0.054249 0.278456 -0.041876
0.066999 0.076940 0.026648
-0.015820 0.168447 -0.063521
-0.064947 0.170488 0.017835
0.048330 0.066037 0.049585
0.062088 0.332537 0.021444
-0.051952 0.216781 0.043182
0.059671 0.346163 0.035321
-0.061854 0.356298 -0.026927
-0.002330 -0.011673 -0.068700
0.050093 0.357994 -0.045822
0.000139 0.188081 0.062182
0.066431 0.174327 -0.001049
0.026100 0.203479 0.060110
-0.072002 -0.000042 0.004277
-0.020796 0.268129 -0.062090
0.063552 0.321617 -0.024548
0.006598 0.180487 0.059306
-0.027084 0.311031 -0.058971
-0.033202 0.062570 -0.058953
0.004400 0.281544 -0.066671
-0.009280 0.316718 -0.059707
0.067772 0.274710 -0.011874
-0.067215 0.322369 0.013836
